ply
format ascii 1.0
comment Generated by Slim Ghodhbane
element vertex 986
property double x
property double y
property double z
end_header
1.0413 10.992 -4.54476
1.12462 11.771 -4.55872
1.22066 12.643 -4.51033
0.53679 0.081 -4.28538
1.13676 0.125 -4.08461
0.54743 0.603 -4.27499
1.16415 0.617 -4.04516
0.52232 1.42 -4.24244
1.2398 1.475 -4.00257
0.52091 2.433 -4.23234
0.56985 3.452 -4.20119
0.5734 4.327 -4.1413
0.5752 5.166 -4.07729
0.63553 6.142 -4.14098
0.658 6.593 -4.18439
0.69989 7.071 -4.23797
0.75988 7.606 -4.29062
-1.7397 8.46 -4.00688
-0.79935 8.498 -4.06274
-0.08229 8.495 -4.2516
0.79751 8.532 -4.39904
1.99319 8.526 -4.13649
-1.73469 9.167 -4.09132
-0.76241 9.186 -4.14909
-0.0189 9.104 -4.19627
0.00617 9.473 -4.21278
-1.69583 9.535 -4.11166
-0.74773 9.75 -4.20556
2.12365 9.888 -4.36864
3.32812 9.765 -4.12664
-1.6766 10.013 -4.15889
-0.73005 10.344 -4.24518
-0.00546 10.004 -4.30726
0.96693 10.003 -4.49826
-2.36802 10.884 -4.1118
-1.60714 10.889 -4.17003
-0.68834 10.903 -4.2176
0.04337 10.9 -4.26107
2.22447 10.81 -4.4758
3.55145 10.795 -4.21204
-0.68435 11.239 -4.21784
0.06832 11.389 -4.26256
-1.60077 11.729 -4.13033
-0.68662 11.742 -4.18865
-0.2979 11.767 -4.22176
0.05033 11.769 -4.2114
2.38737 11.774 -4.46545
3.76567 11.768 -4.21475
-2.4247 12.041 -4.02028
-0.68164 12.122 -4.20598
0.05789 12.019 -4.23589
3.87544 12.427 -4.17118
-0.661215 12.8305 -4.12354
-0.40168 12.747 -4.14748
0.08347 12.692 -4.1763
2.47418 12.544 -4.43755
-0.64588 13.068 -4.10993
2.56809 13.417 -4.30689
-0.66733 13.958 -4.03252
0.07066 13.748 -4.08839
1.29958 13.562 -4.41284
1.40435 14.484 -4.18365
2.68396 14.263 -4.09338
-0.23184 -0.004 -3.81797
-0.22443 0.568 -3.79437
-0.21524 1.384 -3.75785
-0.21083 2.414 -3.73407
1.31199 2.462 -3.96779
-0.19872 3.422 -3.71576
1.40889 3.475 -3.95552
-0.1251 4.318 -3.65702
1.46969 4.311 -3.92707
-0.09168 5.102 -3.63396
1.56144 5.225 -3.88344
-1.78216 6.368 -3.62569
-0.88988 6.465 -3.71476
-0.05773 6.091 -3.72012
1.64152 6.163 -3.90122
-2.69443 6.808 -3.55246
-2.19561 6.93 -3.70531
-0.06095 6.593 -3.80809
1.71316 6.619 -3.90948
-2.682 7.121 -3.60478
-2.36569 7.13 -3.6932
-1.78125 7.159 -3.82108
-0.87435 7.1865 -3.87497
-0.040165 7.196 -3.91351
1.75361 7.06 -3.9199
-3.36033 7.976 -3.54796
-2.70778 7.571 -3.69291
-1.75348 7.592 -3.88485
-0.85806 7.627 -3.93804
-0.0445 7.59 -3.98638
1.81478 7.615 -3.95259
2.83758 7.57 -3.58159
-3.41051 8.433 -3.60007
-2.76114 8.469 -3.86605
3.02499 8.487 -3.83315
-3.44595 8.783 -3.65707
-3.506 9.154 -3.7066
-2.80639 9.088 -3.91946
-3.5762 9.803 -3.75852
-2.84829 9.598 -3.96706
4.50009 9.672 -3.53811
-2.91721 10.008 -3.94694
-3.69627 10.846 -3.73937
-3.0938 10.855 -3.9685
4.79188 10.703 -3.63459
-3.24522 11.275 -3.81926
-3.36603 11.572 -3.66082
-2.76226 11.678 -3.94112
5.16015 11.77 -3.59035
-3.16522 12.1287 -3.64169
-2.84576 12.208 -3.77287
-3.0734 12.621 -3.62511
-2.70002 12.807 -3.77302
-1.53732 12.844 -3.97282
-1.47448 13.491 -3.96053
4.04767 13.325 -3.98707
-2.55045 13.611 -3.67521
-2.04831 13.858 -3.75513
-2.54596 14.145 -3.53223
-1.44526 14.242 -3.80599
4.19576 14.121 -3.68632
-0.68947 14.887 -3.73068
0.05821 14.715 -3.69095
-0.6812 15.131 -3.55786
-1.25247 -0.018 -3.49487
2.09991 0.226 -3.48668
-1.23377 0.643 -3.4499
2.14361 0.743 -3.47625
-1.20338 1.432 -3.39361
2.16108 1.568 -3.41818
-1.12675 2.411 -3.30099
2.20448 2.467 -3.41275
-1.02612 3.435 -3.22582
2.32516 3.48 -3.40489
-0.93067 4.255 -3.18742
2.41289 4.358 -3.41211
-0.87087 4.98 -3.24306
2.49609 5.282 -3.42807
-1.66065 5.75867 -3.13169
-0.8548 5.889 -3.42784
-3.29305 6.187 -3.17429
-2.70542 6.286 -3.36648
-2.3532 6.09 -3.2722
-1.7363 6.104 -3.2247
-0.85746 6.07 -3.45573
2.60302 6.181 -3.43242
-3.24769 6.80833 -3.38869
2.64277 6.651 -3.43778
-3.63463 7.202 -3.25818
-3.308 7.192 -3.42585
2.731 7.045 -3.4871
-3.36363 7.542 -3.46862
-4.18064 8.439 -3.0905
4.08342 8.415 -3.1998
-4.2526 9.168 -3.12129
-4.38745 10.006 -3.16537
-4.30885 10.815 -3.12396
-3.62245 11.775 -3.31734
-3.45047 11.865 -3.44643
-3.64388 12.2216 -3.1586
-3.44942 12.323 -3.36134
5.36525 12.409 -3.42622
-3.59441 12.6723 -3.17141
-3.41576 12.6583 -3.37937
-3.30003 13.005 -3.46038
5.60161 13.223 -3.0055
-3.22557 14.253 -3.11769
5.06272 14.023 -3.10572
-2.61691 14.777 -3.14133
4.29324 14.656 -3.29341
-1.92816 15.221 -3.14919
-1.4427 15.083 -3.4425
2.82963 15.369 -3.42885
-1.47058 15.556 -3.11928
-0.7246 15.832 -3.15859
0.01987 15.992 -3.17276
1.55773 15.7965 -3.38935
2.86538 15.629 -3.14748
-2.15426 -0.043 -2.97548
2.68657 0.311 -2.85235
-2.09033 0.737 -2.91115
2.72669 0.787 -2.81767
-1.96457 1.523 -2.85151
2.82326 1.643 -2.77733
-1.83171 2.374 -2.70613
2.89221 2.48 -2.74636
-1.67928 3.438 -2.61902
3.01079 3.476 -2.72335
-1.5566 4.211 -2.59425
3.09857 4.339 -2.72957
-1.52625 4.843 -2.6231
-2.43457 5.348 -2.73643
3.24227 5.258 -2.72208
-3.19046 5.852 -2.72909
-2.5636 5.812 -2.96919
-2.49965 5.619 -2.7526
-4.06412 6.167 -2.84899
-2.61241 6.033 -2.98132
3.36025 6.154 -2.70905
-4.12182 6.7515 -2.96878
3.45233 6.799 -2.702
-4.30746 7.1795 -2.84755
-4.66956 7.866 -2.58562
-4.11364 7.539 -2.9913
3.72601 7.54 -2.84198
-4.71581 9.395 -2.63897
5.42902 9.52 -2.52141
5.78066 10.622 -2.70659
-4.14768 11.484 -2.85604
-4.12021 11.694 -2.79256
5.85766 11.772 -2.87746
-4.10178 12.1825 -2.69047
5.79892 12.42 -2.90503
-4.03844 12.993 -2.51793
-3.81121 12.547 -2.95918
-4.00828 13.034 -2.5668
-3.91978 13.3667 -2.69027
-3.80834 13.6057 -2.84348
-2.43857 15.357 -2.73619
4.37783 15.204 -2.62826
-2.85515 -0.054 -2.3458
3.11256 0.357 -2.1063
-2.76695 0.732 -2.26088
3.11996 0.805 -2.09973
-2.61798 1.64 -2.16455
3.17071 1.704 -2.08872
-2.49713 2.457 -2.06955
3.28641 2.467 -2.04651
3.41988 3.499 -2.05945
-2.28935 4.185 -2.0288
3.56009 4.35 -2.09382
-2.28629 4.705 -2.11213
-3.60797 5.271 -2.15181
-3.02427 5.24 -2.46097
3.68769 5.222 -2.10441
-3.89652 5.7545 -2.39713
-3.07812 5.509 -2.45677
-5.55124 6.414 -2.03135
3.8701 6.131 -2.06916
-4.88807 6.889 -2.48648
3.9438 6.616 -2.05952
4.00136 6.897 -2.03489
4.23956 7.453 -2.10614
-5.1024 7.502 -2.28341
-5.47641 8.457 -2.08689
4.82931 8.377 -2.29645
-5.07187 9.61 -2.08988
-4.9415 10.057 -2.17176
-4.7749 10.766 -2.26781
-4.4699 11.4475 -2.18425
-4.37579 11.743 -2.15979
-4.30169 12.1785 -2.12663
-4.06927 13.1687 -2.09836
-3.98967 13.286 -2.37156
-4.0963 13.754 -2.18791
-3.94337 14.228 -2.21603
-3.7806 14.524 -2.24173
-3.40091 15.004 -2.24125
-2.89282 15.489 -2.20432
-2.31145 15.978 -2.16473
4.41194 15.565 -2.03724
-1.92745 16.274 -2.04128
2.92019 16.284 -2.10689
-0.75632 16.668 -2.17497
1.65737 16.679 -2.09999
-0.03853 17.012 -2.01426
-3.68294 -0.039 -1.62644
-3.30957 -0.042 -1.90107
3.27443 0.382 -1.55693
-3.6714 0.735 -1.56702
-3.19911 0.732 -1.89661
3.2883 0.86 -1.5257
-3.5904 1.796 -1.53577
-3.05866 1.709 -1.80879
-3.49549 2.673 -1.50635
-2.95951 2.534 -1.77561
-2.35657 3.47 -1.99676
-2.89777 3.512 -1.73119
-3.34975 4.226 -1.51501
-2.86161 4.214 -1.74636
-3.37893 4.642 -1.61846
-2.86724 4.671 -1.8412
-6.09614 6.377 -1.5582
4.07877 6.112 -1.50755
-5.94055 6.81 -1.58648
4.23603 6.716 -1.50787
-5.76616 7.17 -1.61888
-5.49487 7.166 -1.92551
4.57048 7.391 -1.56081
-5.6833 7.554 -1.70795
-5.77539 8.3334 -1.56844
5.1182 8.391 -1.63241
-5.77289 8.76925 -1.63526
-5.72958 9.209 -1.62706
5.80209 9.489 -1.7051
-5.53063 9.819 -1.5327
-5.28841 10.289 -1.53607
-5.10215 10.769 -1.55415
6.25345 10.577 -1.76297
-4.76347 11.379 -1.60332
-4.62352 11.611 -1.67575
-4.43317 11.839 -1.66702
6.42782 11.822 -1.82943
-4.28551 12.2125 -1.66878
6.37907 12.47 -1.84056
-4.11665 12.915 -1.61437
-4.11328 13.1564 -1.81505
6.20431 13.211 -1.84821
-4.24293 13.6667 -1.67281
5.90316 13.931 -1.89243
5.03443 15.093 -1.98006
2.92047 16.492 -1.52889
-1.50014 16.507 -1.94746
-0.84962 16.8295 -1.90747
1.67076 16.911 -1.60491
-0.03239 17.158 -1.55682
3.32486 0.39 -1.18026
3.33155 0.867 -1.18567
3.36193 1.7395 -1.30668
3.45157 2.4645 -1.28997
-3.41163 3.568 -1.4943
3.62803 3.515 -1.29594
3.78395 4.3585 -1.27666
-5.47161 5.469 -1.11246
3.92288 5.2045 -1.28191
-6.02326 5.992 -1.44432
-5.87333 5.725 -1.07907
-6.50382 6.347 -1.00104
-6.28283 6.1915 -1.27763
4.1321 6.094 -1.09899
-6.19468 6.862 -1.26651
4.31472 6.7195 -1.10233
-6.19853 7.164 -1.02219
-5.99445 7.184 -1.38092
4.66686 7.374 -1.13577
-6.10765 7.549 -1.05213
-5.89911 7.551 -1.42866
-6.16417 8.2684 -1.17219
-5.98779 8.464 -1.23506
5.27847 8.367 -1.19415
-6.12272 8.71983 -1.16811
-5.95725 8.77675 -1.35333
-6.20806 9.156 -1.19464
-5.85485 9.2925 -1.44657
5.95529 9.461 -1.21733
-6.06287 9.569 -1.09937
-5.83567 9.86225 -1.19977
-6.03846 10.479 -1.12686
-5.79182 10.343 -1.16556
-6.22686 10.825 -1.06057
-5.51695 10.945 -1.13381
6.41178 10.558 -1.23944
-4.88567 11.934 -1.09718
6.58968 11.855 -1.28006
-4.67093 12.047 -1.10793
-4.30453 12.289 -1.20483
6.54282 12.49 -1.29331
-4.13364 12.6015 -1.08526
-4.21824 13.3205 -1.25304
6.39678 13.201 -1.28964
6.09948 13.921 -1.26897
-4.27855 14.203 -1.37735
-3.97203 14.996 -1.13042
5.31626 15.029 -1.33364
-3.39147 15.569 -1.27311
4.4147 15.793 -1.43434
-2.71436 16.144 -1.39247
-2.13962 16.527 -1.44766
-1.54543 16.815 -1.47895
-1.13878 16.96 -1.48007
2.89944 16.639 -1.03979
-0.80453 17.052 -1.46887
-0.04993 17.281 -1.02584
1.67812 17.009 -1.07642
-4.39082 -0.038 -0.59164
3.35688 0.395 -0.84357
-4.37654 0.743 -0.58748
3.36917 0.867 -0.82226
-4.40221 1.959 -0.59797
3.41634 1.74 -0.787
3.53033 2.47 -0.77373
-4.3903 2.826 -0.61671
-4.32912 3.639 -0.63237
3.69957 3.507 -0.75774
-4.34775 4.181 -0.65931
3.85042 4.344 -0.78173
-4.81878 4.9225 -0.738515
-4.47726 4.56 -0.6977
-5.74934 5.46 -0.67822
-5.16107 5.1765 -0.733205
4.00162 5.204 -0.7827
-6.17551 5.74633 -0.685293
-6.62511 6.27225 -0.673522
-6.44139 6.014 -0.852485
4.17227 6.101 -0.77681
-6.60826 6.788 -0.690637
-6.45301 6.804 -0.98904
4.38163 6.7195 -0.760195
-6.29429 7.21667 -0.81581
4.70683 7.368 -0.76649
-6.24576 7.559 -0.7464
-6.57147 8.246 -0.588508
-6.44087 8.3005 -0.83098
5.32829 8.366 -0.76034
-6.37268 8.71333 -0.75806
-6.60195 9.30225 -0.64209
-6.27902 9.419 -0.99436
6.00174 9.46 -0.80636
-6.52603 9.625 -0.5319
-6.28832 9.66767 -0.757397
-5.99098 9.978 -0.9684
-6.26334 10.148 -0.59559
-6.39422 10.649 -0.96047
6.4283 10.564 -0.80966
-6.67074 11.4715 -0.556365
-5.86674 11.107 -0.90065
-5.81488 11.8535 -0.63476
-5.38151 11.524 -0.97856
6.64462 11.865 -0.82752
-5.78695 12.16 -0.51871
-4.83185 12.346 -0.882495
-4.49435 12.465 -0.90104
-5.08691 12.884 -0.58935
-4.61823 12.805 -0.754773
-4.30646 12.6797 -0.92122
6.61702 12.502 -0.81987
-4.82724 13.186 -0.58575
-4.41375 13.208 -0.9439
6.46918 13.209 -0.79606
-4.56452 13.7393 -0.7219
-4.4779 13.692 -0.99518
6.17591 13.918 -0.80869
-4.36905 14.336 -0.93353
-4.15743 14.94 -0.54139
5.46372 14.988 -0.82448
-3.61373 15.547 -0.66385
4.40092 15.936 -0.9076
-2.91441 16.185 -0.7635
-2.26312 16.633 -0.8623
-1.56696 16.964 -0.93071
-1.30589 17.05 -0.95423
-0.79878 17.18 -0.98436
-4.45837 -0.0383333 -0.323493
3.44932 0.403 -0.1708
-4.43325 0.729333 -0.316637
3.45087 0.871 -0.17871
-4.46438 1.97367 -0.306777
3.4979 1.741 -0.17743
3.60501 2.468 -0.16092
-4.45073 2.852 -0.32428
-4.42327 3.62925 -0.240093
3.77039 3.507 -0.14635
-4.4021 4.1815 -0.21135
3.92569 4.338 -0.15955
-4.7834 4.726 -0.188959
-5.9077 5.47233 -0.252417
-5.32787 5.15025 -0.155
4.08351 5.193 -0.10841
-6.28627 5.74333 -0.233927
-6.63717 6.149 -0.237592
4.25326 6.1 -0.12762
-6.70792 6.765 -0.21255
4.41181 6.58 -0.11553
4.51277 6.863 -0.11148
-6.52687 7.1805 -0.20027
-6.39747 7.35233 -0.402633
4.722 7.354 -0.001
-6.36024 7.53933 -0.264927
-6.66182 8.2975 -0.182859
-6.592 8.78088 -0.245616
-6.47295 8.72367 -0.290293
-6.73746 9.33617 -0.189353
-6.57675 9.659 -0.173527
-6.43212 9.8905 -0.23754
-6.81067 10.489 -0.089695
-6.41364 10.1626 -0.214632
-7.16912 10.8655 -0.311875
-6.65351 10.577 -0.37607
-7.18786 11.0785 -0.3323
-7.03446 11.52 -0.25426
-6.85662 11.523 -0.39706
-6.37097 11.8957 -0.372483
-5.92321 12.3825 -0.316775
-5.32607 12.967 -0.35726
-4.97874 13.273 -0.345335
-4.63465 13.813 -0.32871
-4.49188 14.26 -0.40431
-4.35967 14.618 -0.45525
-1.56776 17.052 -2e-05
-4.46432 -0.0395 0.224937
-4.44301 0.72525 0.21434
-4.47141 1.9755 0.209005
-4.4599 2.856 0.2164
-4.4158 3.63033 0.272967
-4.38917 4.183 0.23139
-4.76535 4.73533 0.266235
-5.91609 5.47333 0.182947
-5.30871 5.15967 0.293063
-6.28838 5.74333 0.168087
-6.65468 6.18425 0.162871
-6.70802 6.76475 0.18433
-6.54001 7.178 0.0920167
-6.40134 7.35233 0.335617
-6.37219 7.5415 0.15089
-6.63645 8.2599 0.236807
5.39409 8.364 0.11129
-6.58599 8.78033 0.250028
-6.47707 8.722 0.166965
-6.71047 9.333 0.298125
6.07507 9.457 0.07384
-6.558 9.643 0.277547
-6.42675 9.88333 0.240277
-6.8051 10.495 0.09353
-6.40944 10.1632 0.214923
-7.19297 10.8533 0.1593
-6.65709 10.577 0.30637
6.50871 10.565 0.03806
-7.2229 11.0767 0.171573
-6.75008 11.499 0.43921
-7.04726 11.5175 0.101655
-6.64643 11.8013 0.175463
-6.31106 11.8705 0.36816
6.70848 11.871 0.04106
-5.90473 12.3412 0.252222
-5.36051 12.9723 0.226287
6.68071 12.504 0.05115
-5.02104 13.312 0.133575
-4.96202 13.256 0.37177
6.53914 13.204 0.04427
-4.66518 13.779 0.279253
6.24454 13.918 0.05976
-4.529 14.115 0.058
-4.49587 14.26 0.35725
-4.25769 14.789 0.3268
5.56714 14.998 0.08999
-3.75259 15.505 0.09246
-3.05983 16.179 0.06271
4.42728 16.031 0.17675
-2.3534 16.691 0.02389
2.87347 16.753 0.24301
-0.75033 17.25 0.03356
-0.03881 17.36 0.11056
1.71885 17.098 0.30059
-4.39677 -0.038 0.54563
3.34786 0.395 0.87868
-4.38246 0.743 0.54161
3.36037 0.867 0.8575
-4.40823 1.959 0.55184
3.40791 1.74 0.82273
3.52203 2.47 0.81066
-4.39652 2.826 0.5707
-4.33551 3.639 0.587
3.69144 3.507 0.79644
-4.35442 4.181 0.61375
3.84202 4.344 0.82201
-4.75314 4.929 0.88259
-4.48432 4.56 0.65078
-5.75613 5.46 0.61798
-5.07548 5.192 0.87609
3.99321 5.204 0.82456
-6.18235 5.74633 0.620583
-6.58267 6.27275 0.725835
-6.44997 6.014 0.784985
4.16391 6.101 0.82046
-6.58008 6.796 0.710225
-6.43141 6.807 0.9567
4.37343 6.7195 0.80604
-6.28912 7.20914 0.779479
4.69854 7.368 0.81574
-6.21638 7.55633 0.767903
-6.5236 8.27 0.621783
-6.39846 8.21875 0.858257
5.32003 8.366 0.81609
-6.38026 8.71333 0.691287
-6.55571 9.277 0.655795
-6.35424 9.25567 0.938037
5.99297 9.46 0.86917
-6.22213 9.74525 0.74503
-5.97127 9.953 0.97083
-6.26924 10.148 0.52997
-5.99389 10.221 0.99331
-6.32077 10.737 0.944385
6.41947 10.564 0.87694
-6.60232 11.444 0.53375
-5.87585 11.107 0.83917
-5.82121 11.8535 0.573835
-5.39146 11.524 0.92216
6.63559 11.865 0.89706
-4.72839 12.3857 0.839207
-5.0928 12.884 0.53605
-4.62588 12.805 0.70637
-4.28649 12.6662 0.892364
6.60808 12.502 0.88912
-4.8331 13.186 0.53516
-4.42339 13.208 0.89763
6.46048 13.209 0.86376
-4.53457 13.7095 0.77457
-4.48808 13.692 0.94824
6.1671 13.918 0.87332
-4.37859 14.336 0.88773
5.45479 14.988 0.88165
-3.62049 15.547 0.62597
4.39117 15.936 0.95364
-2.92225 16.185 0.73294
-2.27203 16.633 0.83855
-1.57662 16.964 0.91425
-1.31581 17.05 0.9405
-0.80905 17.18 0.97594
3.31231 0.39 1.21501
3.31895 0.867 1.22049
-3.60629 1.796 1.49809
3.37229 1.739 1.16007
3.47743 2.469 1.14737
-3.51107 2.673 1.46966
-3.42709 3.568 1.45849
3.6463 3.507 1.15517
-3.36543 4.226 1.47984
3.8 4.351 1.12181
-5.48296 5.469 1.0551
3.94356 5.204 1.11881
-6.03805 5.992 1.38117
-5.88432 5.725 1.01751
-6.23462 6.25333 1.30594
4.12036 6.094 1.1422
-6.11152 6.888 1.30637
4.30294 6.7195 1.14745
-6.00858 7.184 1.31807
4.65471 7.374 1.18458
-6.094 7.547 1.03442
-5.91375 7.551 1.36681
-6.14596 8.3052 1.12512
-5.82909 8.1995 1.49653
5.26568 8.367 1.24936
-6.13462 8.71983 1.10393
-5.97109 8.77675 1.29087
-6.1536 9.1488 1.20428
-5.86967 9.2925 1.38518
5.94221 9.461 1.27962
-6.07405 9.569 1.03582
-5.7417 9.82875 1.26456
-6.04993 10.479 1.06357
-5.61353 10.465 1.21638
-5.3042 10.289 1.4806
-5.52852 10.945 1.07597
6.39845 10.558 1.30652
-4.89689 11.934 1.04596
6.57592 11.855 1.349
-4.68228 12.047 1.05896
-4.31691 12.289 1.15969
6.52891 12.49 1.36175
-4.12826 12.765 1.29318
-4.23113 13.3205 1.2088
6.38292 13.201 1.35655
-4.33637 13.875 1.48814
6.08586 13.921 1.33277
-4.29274 14.203 1.33247
-3.98365 14.996 1.08877
5.30201 15.029 1.38923
-3.40462 15.569 1.23752
4.39944 15.793 1.4805
-2.72879 16.144 1.36397
-2.15466 16.527 1.42517
-1.56083 16.815 1.46268
-1.15422 16.96 1.46806
2.88839 16.639 1.07009
-0.81987 17.052 1.46037
-0.06067 17.281 1.02527
1.66675 17.009 1.09393
-3.69977 -0.039 1.58779
-3.3293 -0.042 1.86631
3.25794 0.382 1.59114
-3.68761 0.735 1.52849
-3.2188 0.732 1.86301
3.27215 0.86 1.56005
-3.07743 1.709 1.77666
3.32382 1.74 1.52357
3.39831 2.46 1.50472
-2.97795 2.534 1.74452
-2.37735 3.47 1.97197
-2.91574 3.512 1.70075
3.58222 3.523 1.51257
-2.87974 4.214 1.7163
3.74074 4.366 1.51062
-3.3957 4.642 1.58298
-2.88636 4.671 1.81107
3.87492 5.205 1.52702
-5.57221 6.414 1.97311
4.06276 6.112 1.55018
-5.95683 6.81 1.52419
4.22001 6.716 1.55215
-5.64877 7.168 1.71314
4.55388 7.391 1.60858
-5.70087 7.554 1.64834
-5.76642 8.42267 1.51545
5.10082 8.391 1.68592
-5.7897 8.76925 1.57472
-5.7463 9.209 1.56697
5.78392 9.489 1.76577
-5.11815 10.769 1.50063
6.23465 10.577 1.82836
-4.78 11.379 1.55335
-4.64082 11.611 1.62724
-4.45038 11.839 1.6205
6.40831 11.822 1.89664
-4.30275 12.2125 1.62382
6.35945 12.47 1.90726
-4.13204 12.903 1.62672
-4.13207 13.1564 1.77188
6.18462 13.211 1.91308
-4.23483 13.5973 1.67501
5.88302 13.931 1.95414
2.9043 16.492 1.55939
-1.52045 16.507 1.93164
-0.86955 16.8295 1.89847
1.65386 16.911 1.62232
-0.04869 17.158 1.5564
-2.87955 -0.054 2.31577
3.09033 0.357 2.13878
-2.79048 0.732 2.23178
3.09781 0.805 2.13229
-2.6405 1.64 2.13701
3.14866 1.704 2.12181
-2.51867 2.457 2.04328
3.2648 2.467 2.08081
3.39813 3.499 2.09514
-2.31047 4.185 2.00471
3.53797 4.35 2.13099
-2.30828 4.705 2.08807
-3.63031 5.271 2.11391
-3.04988 5.24 2.42917
3.66545 5.222 2.14291
-3.92141 5.7545 2.35619
-3.10368 5.509 2.4244
3.84822 6.131 2.10958
-4.91384 6.889 2.43516
3.95092 6.7565 2.08869
4.21727 7.453 2.15042
-5.12603 7.502 2.22986
-5.49796 8.457 2.02943
4.80499 8.377 2.3469
-5.09348 9.61 2.03666
-4.96397 10.057 2.1199
-4.79839 10.766 2.21768
-4.51024 11.416 2.13959
-4.47483 11.479 2.13505
-4.39817 11.743 2.11385
-4.32372 12.1785 2.08147
-4.06458 12.993 2.4755
-4.07184 13.198 2.12414
-4.11899 13.754 2.1449
-3.96636 14.228 2.17462
-3.80387 14.524 2.20202
-3.42419 15.004 2.20551
-2.91575 15.489 2.1739
5.01342 15.093 2.03267
-2.33399 15.978 2.1404
4.39037 15.565 2.08333
-1.94872 16.274 2.02099
2.89796 16.284 2.13736
-0.77906 16.668 2.16693
1.63529 16.679 2.11723
-0.05962 17.012 2.01375
-2.1853 -0.043 2.95275
2.65655 0.311 2.88033
-2.1207 0.737 2.88911
2.69704 0.787 2.84607
-1.99432 1.523 2.83078
2.79402 1.643 2.80674
-1.85995 2.374 2.6868
2.8633 2.48 2.7765
-1.70661 3.438 2.60129
2.9821 3.476 2.75473
-1.58368 4.211 2.57781
3.06982 4.339 2.76187
-1.55364 4.843 2.60697
-2.46309 5.348 2.71079
3.21359 5.258 2.75588
-3.21887 5.852 2.69553
-2.56144 5.7155 2.83422
-4.09373 6.167 2.80627
-2.64349 6.033 2.9538
3.3317 6.154 2.74409
-4.15269 6.7515 2.92545
3.42384 6.799 2.73801
-4.51534 7.195 2.68557
-4.15875 7.164 2.91901
-4.69638 7.866 2.53658
-4.14474 7.539 2.94806
3.69605 7.54 2.88084
-4.74318 9.395 2.58944
5.40232 9.52 2.57813
5.752 10.622 2.76698
-4.17736 11.484 2.81245
-4.14922 11.694 2.74926
5.82721 11.772 2.93864
-4.12973 12.1825 2.64737
5.76818 12.42 2.96559
-3.84199 12.547 2.91911
-4.03494 13.034 2.52469
-3.94774 13.3667 2.64907
-3.83791 13.6057 2.80344
-2.46709 15.357 2.71051
4.35007 15.204 2.67396
-1.289 -0.018 3.48156
-1.26983 0.643 3.43679
2.10709 0.743 3.49851
-1.23885 1.432 3.38082
2.12517 1.568 3.44063
-1.16126 2.411 3.28901
2.16862 2.467 3.43564
-1.05984 3.435 3.2149
2.28938 3.48 3.42905
-0.964 4.255 3.1775
2.37702 4.358 3.43719
-0.90478 4.98 3.23376
2.46005 5.282 3.45402
-1.69336 5.75867 3.11413
-0.890645 5.889 3.4187
-3.32611 6.187 3.13963
-2.74052 6.286 3.33796
-2.38734 6.09 3.24738
-1.76997 6.104 3.20634
-0.893595 6.07 3.44656
2.56693 6.181 3.45949
-3.283 6.80833 3.35449
2.60663 6.651 3.46527
-3.66855 7.202 3.21994
-3.34369 7.192 3.39102
-3.39977 7.542 3.43321
-4.21278 8.439 3.04655
4.04969 8.415 3.24239
-4.28505 9.168 3.07659
-4.42036 10.006 3.11925
-4.34133 10.815 3.07866
-3.65699 11.775 3.27922
-3.48637 11.865 3.41011
-3.67676 12.2216 3.12027
-3.48443 12.323 3.32504
5.32907 12.409 3.48222
-3.57894 12.6854 3.19433
-3.34045 12.565 3.45941
-3.33609 13.005 3.42563
5.56983 13.223 3.064
-3.25805 14.253 3.08374
5.02992 14.023 3.15856
-2.64966 14.777 3.11375
4.25851 14.656 3.33819
-1.96103 15.221 3.12883
-1.47867 15.083 3.4272
2.79357 15.369 3.45829
-1.50317 15.556 3.10371
-0.75764 15.832 3.15083
-0.01336 15.992 3.1728
1.52216 15.7965 3.40547
2.83226 15.629 3.17731
-0.27181 -0.004 3.81533
2.06329 0.226 3.50847
-0.26415 0.568 3.79181
-0.25458 1.384 3.75539
-0.24992 2.414 3.73166
1.27037 2.462 3.98132
-0.23762 3.422 3.71347
1.36739 3.475 3.97006
-0.16339 4.318 3.65551
1.42848 4.311 3.94225
-0.12973 5.102 3.6328
1.52068 5.225 3.89958
-1.82003 6.368 3.60683
-0.92873 6.465 3.70524
-0.09668 6.091 3.71932
1.60058 6.163 3.9182
-2.73148 6.808 3.52405
-2.23429 6.93 3.68211
-0.10083 6.593 3.80724
1.67213 6.619 3.92721
-2.71961 7.121 3.5765
-2.40424 7.13 3.66823
-1.82117 7.159 3.80223
-0.91488 7.1865 3.8656
-0.08115 7.196 3.91287
1.71247 7.06 3.93805
2.69433 7.045 3.51551
-3.3973 7.976 3.51257
-2.7463 7.571 3.66435
-1.79407 7.592 3.86627
-0.89925 7.627 3.92884
-0.08624 7.59 3.98569
1.77329 7.615 3.97137
2.79992 7.57 3.61111
-3.44802 8.433 3.56416
-2.80147 8.469 3.83693
-1.78156 8.46 3.98844
2.98469 8.487 3.86462
-3.48406 8.783 3.62078
-3.54462 9.154 3.66968
-2.84728 9.088 3.88986
-3.61536 9.803 3.72087
-2.88967 9.598 3.93702
4.46279 9.672 3.58504
-2.95838 10.008 3.91617
-3.73523 10.846 3.70046
-3.13519 10.855 3.93589
4.75356 10.703 3.68457
-3.28504 11.275 3.78507
-3.40419 11.572 3.62537
-2.80338 11.678 3.91197
5.12227 11.77 3.64419
-3.20317 12.1287 3.60835
-2.88512 12.208 3.74286
-2.46666 12.041 3.99467
-3.11119 12.621 3.59273
-2.73938 12.807 3.74453
-1.57884 12.844 3.9565
-1.51587 13.491 3.94487
-2.5888 13.611 3.6483
-2.08752 13.858 3.73348
-2.58281 14.145 3.50537
-1.48504 14.242 3.79064
4.15693 14.121 3.73006
-0.7285 14.887 3.72325
0.01955 14.715 3.69136
-0.71842 15.131 3.55053
0.49189 0.081 4.29076
1.09392 0.125 4.09629
0.50263 0.603 4.28049
1.12172 0.617 4.05713
0.47786 1.42 4.24768
1.19782 1.475 4.01534
0.47656 2.433 4.23757
0.52582 3.452 4.20693
0.53001 4.327 4.14707
0.53248 5.166 4.08309
0.59213 6.142 4.14741
0.61414 6.593 4.19105
0.65548 7.071 4.24506
0.7149 7.606 4.29834
-0.84185 8.498 4.05415
-0.12681 8.495 4.25051
0.7514 8.532 4.40715
1.94976 8.526 4.15714
-1.77744 9.167 4.07293
-0.80582 9.186 4.14088
-0.050395 9.2885 4.20423
-1.7388 9.535 4.09368
-0.79173 9.75 4.19749
2.07779 9.888 4.39064
3.28473 9.765 4.16127
-1.72006 10.013 4.1411
-0.77447 10.344 4.2373
-0.05056 10.004 4.30696
-2.41095 10.884 4.08678
-1.65072 10.889 4.15297
-0.73247 10.903 4.21016
-0.00126 10.9 4.26129
2.17748 10.81 4.49885
3.50715 10.795 4.249
-0.72848 11.239 4.21044
0.02368 11.389 4.26304
-1.64394 11.729 4.11335
-0.73045 11.742 4.18123
-0.34209 11.767 4.21841
0.00622 11.769 4.21169
2.34048 11.774 4.4902
3.72133 11.768 4.25395
-0.72565 12.122 4.19861
0.01353 12.019 4.23626
3.83155 12.427 4.21153
-0.70436 12.8305 4.11639
-0.44509 12.747 4.14304
0.03973 12.692 4.17695
2.42758 12.544 4.46321
-0.68888 13.068 4.10294
2.52285 13.417 4.33354
4.00569 13.325 4.02924
-0.70952 13.958 4.02531
0.02784 13.748 4.0889
1.2533 13.562 4.42621
1.36047 14.484 4.19813
2.64095 14.263 4.12126
0.91977 10.003 4.50814
0.99365 10.992 4.55541
1.07682 11.771 4.57025
1.17336 12.643 4.52287
