ply
format ascii 1.0
comment Generated by Slim Ghodhbane
element vertex 1970
property double x
property double y
property double z
end_header
-27.2613 31.8409 -69.0963
-18.8926 31.6399 -69.0963
-12.4431 31.702 -69.0963
-6.48537 32.1654 -69.0963
-68.4655 37.2389 -68.596
-64.0934 35.3553 -69.0963
-58.2873 37.6136 -69.0963
-53.0687 36.1535 -69.0963
-47.7297 36.5808 -69.0963
-40.5859 38.6966 -69.0963
-31.8251 35.2529 -69.0963
-27.8055 38.7363 -69.0963
-24.0636 35.4322 -69.0963
-16.1617 37.4521 -69.0963
-10.3543 36.1786 -69.0963
-4.5 37.6267 -68.1295
-67.34 44.8334 -69.0963
-63.2829 41.9476 -69.0963
-58.4046 44.4105 -69.0963
-50.4979 40.7807 -69.0963
-44.6251 40.6511 -69.0963
-36.6367 42.5034 -69.0963
-32.307 40.1221 -69.0963
-23.8789 40.7788 -69.0963
-19.0522 40.9544 -69.0963
-12.2854 41.1024 -69.0963
-7.0027 43.4285 -69.0963
-68.5 49.258 -69.0542
-59.3267 48.7997 -69.0963
-52.3766 46.7155 -69.0963
-45.5296 47.8666 -69.0963
-40.8167 45.2421 -69.0963
-36.3615 49.2618 -69.0963
-31.6252 46.1887 -69.0963
-26.6191 45.2288 -69.0963
-21.3445 47.6015 -69.0963
-16.9402 47.0312 -69.0963
-12.3857 46.1564 -69.0963
-7.58703 49.1062 -69.0963
-4.5 48.1529 -66.1338
-66.7334 53.2784 -69.0963
-63.4922 50.251 -69.0963
-59.0482 54.798 -69.0963
-51.0597 50.3284 -69.0963
-46.6503 52.4527 -69.0963
-40.5129 51.5533 -69.0963
-35.9739 54.3379 -69.0963
-30.2824 52.3761 -69.0963
-25.0855 52.3293 -69.0963
-17.4172 53.1264 -69.0963
-12.8126 51.1938 -69.0963
-4.5 52.694 -68.9576
-68.5 58.1353 -68.3403
-63.2331 56.8973 -69.0963
-52.1549 57.6222 -69.0963
-43.458 56.0754 -69.0963
-39.1231 57.7675 -69.0963
-31.5349 57.2627 -69.0963
-26.59 57.7084 -69.0963
-20.5397 56.5488 -69.0963
-10.8988 55.7532 -69.0963
-5.55169 58.571 -69.0963
-65.3457 62.5897 -69.0963
-60.3116 64.6262 -69.0963
-57.5619 61.0937 -69.0963
-47.2866 62.6976 -69.0963
-43.27 60.7604 -69.0963
-36.4207 62.859 -69.0963
-31.5585 63.0337 -69.0963
-27.0452 63.5943 -69.0963
-22.7775 60.3694 -69.0963
-15.1366 60.2396 -69.0963
-10.9851 63.3599 -69.0963
-4.5 60.103 -65.0825
-68.5 67.0429 -68.6387
-58.1513 68.7361 -69.0963
-52.5306 65.5764 -69.0963
-41.3111 65.0785 -69.0963
-35.9946 68.2458 -69.0963
-29.8579 67.7941 -69.0963
-21.6623 65.2061 -69.0963
-18.2109 67.5998 -69.0963
-12.8855 68.2973 -69.0963
-4.93117 66.6413 -69.0963
-68.5 71.6844 -68.5641
-62.5445 72.3234 -69.0963
-54.4614 73.0296 -69.0963
-48.5667 72.6258 -69.0963
-42.145 71.9365 -69.0963
-31.1581 72.7399 -69.0963
-25.3667 71.2537 -69.0963
-17.4862 73.1142 -69.0963
-10.8102 74.2051 -69.0963
-6.40282 70.8009 -69.0963
-68.5 76.2173 -69.0301
-63.3019 79.7263 -69.0963
-57.6965 76.4486 -69.0963
-52.5522 77.0466 -69.0963
-48.0507 77.1616 -69.0963
-41.7862 78.4955 -69.0963
-36.7744 75.7373 -69.0963
-32.8367 78.1595 -69.0963
-27.8891 77.6141 -69.0963
-23.6517 76.3095 -69.0963
-12.4125 77.9258 -69.0963
-4.5 76.8481 -68.8508
-68.2013 82.7781 -67.3294
-62.4751 84.8346 -69.0963
-58.9053 81.9875 -69.0963
-51.59 82.6617 -69.0963
-47.2296 84.2023 -69.0963
-41.9465 83.6165 -69.0963
-36.8278 81.9162 -69.0963
-30.0785 81.9072 -69.0963
-24.8696 81.2401 -69.0963
-17.5229 81.3587 -69.0963
-8.83011 83.7238 -69.0963
-4.5 82.61 -68.6571
-66.2266 87.3494 -69.0963
-56.1357 86.4036 -69.0963
-51.6592 87.6765 -69.0963
-45.8326 89.2934 -69.0963
-37.6931 88.33 -69.0963
-33.6238 86.3606 -69.0963
-28.3258 86.8575 -69.0963
-21.4322 86.3068 -69.0963
-15.9216 89.4372 -69.0963
-12.0031 86.774 -69.0963
-5.5392 88.4222 -69.0963
-4.5 85.887 -65.5043
-67.4833 94.3546 -69.0963
-60.5865 91.0322 -69.0963
-56.0001 91.142 -69.0963
-52.8064 94.1432 -69.0963
-48.6873 92.6234 -69.0963
-43.0017 92.9573 -69.0963
-32.173 91.1465 -69.0963
-26.7526 92.0534 -69.0963
-22.1648 90.9893 -69.0963
-17.5082 94.4793 -69.0963
-9.4595 92.9731 -69.0963
-4.5 92.4259 -67.0944
-62.4909 96.906 -69.0963
-55.993 97.5098 -69.0963
-51.4595 98.3081 -69.0963
-42.2844 99.1935 -69.0963
-37.0995 95.3778 -69.0963
-32.1021 95.9386 -69.0963
-22.5303 96.9765 -69.0963
-13.4109 98.619 -69.0963
-4.5 96.8097 -68.4792
-68.2325 102.441 -69.0963
-60.054 101.036 -69.0963
-55.0959 103.41 -69.0963
-47.3239 103.295 -69.0963
-42.8819 104.946 -69.0963
-36.7012 102.315 -69.0963
-32.2966 103.541 -69.0963
-26.1192 102.308 -69.0963
-20.4251 102.274 -69.0963
-12.4001 103.769 -69.0963
-8.711 101.369 -69.0963
-4.5 104.722 -68.7517
-68.4601 107.875 -69.0963
-62.9883 105.1 -69.0963
-57.0648 107.768 -69.0963
-50.2853 107.531 -69.0963
-45.7279 108.962 -69.0963
-39.9301 108.606 -69.0963
-30.3043 107.684 -69.0963
-21.2895 109.281 -69.0963
-16.7247 105.335 -69.0963
-8.43037 107.146 -69.0963
-68.5 112.325 -68.9268
-61.997 112.317 -69.0963
-55.1086 111.714 -69.0963
-50.779 114.873 -69.0963
-42.7203 113.186 -69.0963
-35.4922 114.907 -69.0963
-34.0578 110.28 -69.0963
-27.6083 111.405 -69.0963
-24.7611 114.737 -69.0963
-18.705 113.045 -69.0963
-13.6211 112.491 -69.0963
-9.25116 112.968 -69.0963
-4.5 110.312 -67.996
-64.8108 117.297 -69.0963
-55.4182 116.118 -69.0963
-52.4876 119.561 -69.0963
-45.7226 117.129 -69.0963
-39.8363 116.934 -69.0963
-31.7389 118.032 -69.0963
-26.8997 118.612 -69.0963
-22.49 118.854 -69.0963
-17.951 117.953 -69.0963
-12.408 119.212 -69.0963
-8.15594 118.116 -69.0963
-4.5 115.267 -67.9845
-67.0031 122.769 -69.0963
-61.7879 120.871 -69.0963
-57.3616 122.557 -69.0963
-52.736 124.309 -69.0963
-47.4144 121.647 -69.0963
-42.5559 120.957 -69.0963
-38.6538 123.678 -69.0963
-34.3131 122.686 -69.0963
-27.3591 122.998 -69.0963
-22.8112 124.114 -69.0963
-15.939 122.012 -69.0963
-11.0407 123.416 -69.0963
-4.5 123.304 -67.6258
-68.5 128.347 -67.8006
-62.3689 127.844 -69.0963
-55.7389 127.547 -69.0963
-47.9742 127.243 -69.0963
-40.5487 128.443 -69.0963
-36.0893 128.357 -69.0963
-31.0454 126.691 -69.0963
-24.8436 128.721 -69.0963
-19.2032 126.718 -69.0963
-14.5321 126.827 -69.0963
-9.21204 127.412 -69.0963
-4.5 128.831 -68.5971
-68.5 132.604 -68.961
-64.2306 134.829 -69.0963
-59.9715 132.119 -69.0963
-53.8709 132.046 -69.0963
-49.4749 132.207 -69.0963
-44.6998 131.322 -69.0963
-39.3059 133.301 -69.0963
-32.8943 133.11 -69.0963
-28.2541 131.751 -69.0963
-19.4484 131.525 -69.0963
-12.7494 131.114 -69.0963
-7.46802 132.02 -69.0963
-68.5 137.812 -66.806
-56.2277 136.151 -69.0963
-51.5217 136.322 -69.0963
-46.1839 135.45 -69.0963
-43.9105 139.557 -69.0963
-38.4263 139.16 -69.0963
-30.9971 137.988 -69.0963
-26.4513 137.44 -69.0963
-21.8004 139.485 -69.0963
-19.1225 135.958 -69.0963
-12.3395 136.51 -69.0963
-4.5 137.158 -68.5096
-68.1151 144.529 -69.0963
-63.8497 140.257 -69.0963
-57.6484 140.788 -69.0963
-54.5403 144.578 -69.0963
-49.5421 140.317 -69.0963
-44.214 144.185 -69.0963
-38.9941 143.633 -69.0963
-33.9521 143.596 -69.0963
-29.1256 143.413 -69.0963
-24.2523 144.792 -69.0963
-17.5119 142.102 -69.0963
-7.54821 142.752 -69.0963
-65.2784 148.15 -69.0963
-60.7499 145.035 -69.0963
-58.1649 148.607 -69.0963
-47.6492 146.746 -69.0963
-37.5429 148.027 -69.0963
-32.8754 148.188 -69.0963
-19.4114 147.889 -69.0963
-14.2752 145.117 -69.0963
-9.26939 147.555 -69.0963
-4.89936 148.617 -69.0963
-68.5 151.017 -67.5445
-63.9689 152.711 -69.0963
-59.2361 154.798 -69.0963
-52.9 151.54 -69.0963
-45.3897 154.473 -69.0963
-41.6039 151.178 -69.0963
-35.8424 153.008 -69.0963
-29.6653 151.51 -69.0963
-22.2321 152.335 -69.0963
-16.8227 154.699 -69.0963
-12.4086 150.815 -69.0963
-8.27202 152.974 -69.0963
-4.5 152.44 -66.9401
-68.5 155.426 -68.8731
-63.8953 157.135 -69.0963
-58.8983 159.508 -69.0963
-52.327 156.851 -69.0963
-43.5601 158.667 -69.0963
-38.8013 156.319 -69.0963
-33.2471 157.914 -69.0963
-29.0098 155.908 -69.0963
-24.1731 157.944 -69.0963
-19.8084 158.713 -69.0963
-12.4036 157.657 -69.0963
-4.5 157.083 -68.9799
-68.5 161.398 -66.947
-63.869 162.079 -69.0963
-58.9592 164.131 -69.0963
-50.9671 161.203 -69.0963
-46.9208 163.256 -69.0963
-41.7389 163.124 -69.0963
-36.8106 161.266 -69.0963
-32.8524 163.182 -69.0963
-28.6813 161.278 -69.0963
-21.9523 162.665 -69.0963
-17.2141 162.527 -69.0963
-7.65413 161.203 -69.0963
-65.9069 166.067 -69.0963
-62.5765 169.234 -69.0963
-54.4504 167.062 -69.0963
-48.0821 167.921 -69.0963
-38.5248 167.531 -69.0963
-32.633 168.462 -69.0963
-26.3675 165.976 -69.0963
-19.3804 166.697 -69.0963
-12.9743 167.391 -69.0963
-4.95989 166.019 -69.0963
-66.8262 172.32 -68.961
-60.4535 174.081 -69.0963
-56.0381 174.011 -69.0963
-51.4169 171.71 -69.0963
-46.0588 174.605 -69.0963
-42.4092 171.142 -69.0963
-39.6064 174.64 -69.0963
-32.4664 173.021 -69.0963
-24.3953 172.667 -69.0963
-19.5503 172.455 -69.0963
-12.9875 173.375 -69.0963
-9.66581 170.108 -69.0963
-4.5 172.388 -67.086
-68.5 177.433 -67.8514
-63.3325 178.822 -69.0963
-55.5238 178.726 -69.0963
-51.4799 176.162 -69.0963
-45.2883 179.378 -69.0963
-40.2537 179.315 -69.0963
-35.7988 178.535 -69.0963
-27.7439 175.533 -69.0963
-21.1734 178.273 -69.0963
-16.7758 176.219 -69.0963
-8.37964 175.688 -69.0963
-4.5 178.078 -69.0484
-68.5 182.053 -69.0307
-61.1138 182.759 -69.0963
-56.7513 182.989 -69.0963
-49.4631 182.514 -69.0963
-43.5229 184.316 -69.0963
-38.0663 183.543 -69.0963
-30.4502 183.814 -69.0963
-27.5533 180.373 -69.0963
-24.533 184.436 -69.0963
-16.1403 181.283 -69.0963
-10.4087 181.085 -69.0963
-4.5 182.406 -65.1575
-68.5 187.255 -67.2702
-62.4566 186.817 -69.0963
-54.4027 188.416 -69.0963
-47.0583 189.022 -69.0963
-41.3601 188.27 -69.0963
-34.9283 187.104 -69.0963
-26.6938 188.689 -69.0963
-19.642 185.014 -69.0963
-11.9839 187.019 -69.0963
-6.6446 185.868 -69.0963
-4.5 189.107 -66.2413
-68.5 192.876 -68.1387
-64.2178 192.194 -69.0963
-57.4996 191.593 -69.0963
-52.4922 194.039 -69.0963
-46.4021 194.022 -69.0963
-42.1788 192.838 -69.0963
-36.1299 193.678 -69.0963
-32.2033 191.097 -69.0963
-22.5424 193.252 -69.0963
-18.0112 194.236 -69.0963
-14.901 190.909 -69.0963
-7.55638 194.942 -69.0963
-67.4048 197.198 -69.0963
-60.8805 195.61 -69.0963
-56.4747 196.376 -69.0963
-49.8995 197.937 -69.0963
-40.5179 196.88 -69.0963
-27.0931 195.567 -69.0963
-21.4368 198.259 -69.0963
-14.5114 197.041 -69.0963
-5.03594 199.432 -69.0963
-68.438 203.283 -69.0963
-61.9427 200.279 -69.0963
-55.2406 202.959 -69.0963
-48.8148 202.522 -69.0963
-44.2912 202.506 -69.0963
-39.7165 203.105 -69.0963
-33.3236 201.813 -69.0963
-28.2331 202.422 -69.0963
-22.6666 202.683 -69.0963
-17.7338 201.383 -69.0963
-12.8963 201.506 -69.0963
-6.05966 204.046 -69.0963
-68.5 208.056 -67.7538
-63.1692 205.338 -69.0963
-56.9856 208.411 -69.0963
-52.6417 207.114 -69.0963
-45.7339 209.165 -69.0963
-37.2027 208.738 -69.0963
-24.2152 206.79 -69.0963
-18.5155 205.771 -69.0963
-10.9384 206.434 -69.0963
-7.66456 209.796 -69.0963
-4.5 208.309 -65.963
-67.7976 213.284 -69.0963
-63.9734 210.899 -69.0963
-57.779 213.876 -69.0963
-51.8005 212.231 -69.0963
-43.9884 213.28 -69.0963
-38.8445 212.271 -69.0963
-32.6309 212.315 -69.0963
-26.5665 212.763 -69.0963
-21.5895 210.493 -69.0963
-16.7796 210.144 -69.0963
-12.2141 210.782 -69.0963
-5.49306 213.944 -69.0963
-68.5 217.441 -65.4539
-62.3856 215.086 -69.0963
-58.7148 218.713 -69.0963
-51.1205 217.025 -69.0963
-44.994 217.654 -69.0963
-38.6366 217.113 -69.0963
-31.0578 218.011 -69.0963
-21.6997 217.73 -69.0963
-16.6348 216.218 -69.0963
-11.9784 216.573 -69.0963
-7.4655 218.621 -69.0963
-72.8492 223.137 -68.2427
-68.4585 220.728 -69.0963
-63.1123 220.43 -69.0963
-53.0818 220.981 -69.0963
-48.5114 220.674 -69.0963
-42.4056 221.277 -69.1784
-36.4443 221.491 -69.632
-15.1117 220.464 -69.0963
-4.18325 221.51 -69.2822
0.972493 224.215 -67.7606
-76.9011 226.613 -67.248
2.92468 228.829 -66.5061
-76.9252 232.469 -68.7212
-76.8994 239.534 -67.142
2.92808 235.24 -66.2988
-76.9183 243.862 -68.2983
2.89078 242.459 -68.5744
-76.933 248.253 -69.1914
2.91006 248.034 -67.3981
-76.9371 252.869 -69.4424
-76.9068 259.44 -67.5928
2.90089 255.882 -67.9577
-76.8667 264.003 -65.1494
2.89735 260.602 -68.1734
-76.9331 267.286 -69.2002
2.90441 268.004 -67.7432
-76.9119 271.778 -67.9098
2.87903 272.27 -69.2908
-76.8795 276.253 -65.9324
-76.9037 280.402 -67.4073
2.90058 281.413 -67.9765
-76.9171 285.91 -68.2263
2.90531 289.39 -67.688
-76.7438 292.406 -67.6801
-72.4329 297.843 -67.9127
-3.47927 299.877 -67.8207
0.587154 296.631 -68.1699
-68.5 304.106 -67.619
-62.1467 302.21 -69.0963
-56.6085 304.241 -69.0963
-52.0583 302.408 -69.0963
-47.8714 300.423 -69.5623
-42.2042 300.994 -69.0963
-36.0403 300.723 -69.2741
-32.8036 303.703 -69.0963
-28.1628 303.474 -69.0963
-21.993 302.634 -69.0963
-17.0402 303.608 -69.0963
-10.0651 303.605 -69.0963
-4.5 304.806 -68.7777
-68.5 308.056 -69.5353
-63.7688 308.147 -69.0963
-58.3791 308.517 -69.0963
-46.9133 305.647 -69.0963
-40.2772 305.637 -69.0963
-36.3781 308.785 -69.0963
-30.2931 307.336 -69.0963
-24.8151 306.594 -69.0963
-17.1413 308.731 -69.0963
-12.6358 307.474 -69.0963
-7.88952 308.122 -69.0963
-4.5 307.742 -65.4624
-67.2218 313.511 -68.1019
-61.4807 312.197 -69.0963
-51.6137 312.277 -69.0963
-43.8184 310.029 -69.0963
-39.4162 311.957 -69.0963
-32.4484 311.149 -69.0963
-26.9438 312.729 -69.0963
-21.4837 310.1 -69.0963
-10.4059 311.82 -69.0963
-4.87536 312.02 -69.0963
-68.5 318.914 -66.8734
-61.8828 316.653 -69.0963
-56.0048 316.025 -69.0963
-42.6717 317.026 -69.0963
-35.2503 316.666 -69.0963
-31.0659 319.368 -69.0963
-22.3108 319.146 -69.0963
-17.5211 316.148 -69.0963
-10.6751 317.791 -69.0963
-4.46721 317.065 -69.0963
-64.4414 320.401 -69.0963
-56.8263 321.59 -69.0963
-51.0722 321.414 -69.0963
-47.4822 324.005 -69.0963
-43.5864 321.586 -69.0963
-36.7716 322.093 -69.0963
-32.9664 324.354 -69.0963
-28.3195 323.528 -69.0963
-21.5424 324.133 -69.0963
-18.0839 321.464 -69.0963
-12.6162 322.599 -69.0963
-7.53173 321.178 -69.0963
-4.28648 323.586 -67.0511
-68.5 328.444 -68.6336
-62.0733 325.921 -69.0963
-57.4557 327.686 -69.0963
-51.4157 327.8 -69.0963
-44.0541 329.487 -69.0963
-39.4443 327.117 -69.0963
-31.5995 328.584 -69.0963
-26.7612 328.131 -69.0963
-20.6529 329.461 -69.0963
-16.1492 325.466 -69.0963
-13.6767 329.858 -69.0963
-9.24138 325.421 -69.0963
-4.5 328.558 -66.8394
-66.7949 333.596 -67.4784
-61.569 330.62 -69.0963
-56.5795 333.073 -69.0962
-49.3442 331.843 -69.0963
-41.7779 333.526 -69.0528
-36.9738 330.725 -69.0963
-28.8784 332.112 -69.0963
-24.7214 334.595 -68.5212
-19.6662 334.388 -68.6238
-11.2798 334.917 -68.3614
-7.68851 330.516 -69.0963
-3.57469 333.319 -69.0963
-66.4091 337.622 -67.4772
-61.7408 336.251 -67.6981
-55.9094 337.798 -66.9292
-49.0966 337.932 -66.8626
-44.5706 336.807 -67.4219
-35.7622 337.525 -67.0649
-31.3014 336.323 -67.6622
-25.7135 338.615 -66.5232
-20.5357 339.281 -66.1923
-15.4881 336.15 -67.7486
-12.1162 338.935 -66.3642
-5.4817 337.441 -67.1065
-59.8119 341.427 -65.1259
-45.0922 340.925 -65.3752
-39.62 340.695 -65.4896
-31.0052 341.323 -65.1771
-16.3774 340.83 -65.4222
-68.5 26.2916 -62.6098
-4.5 26.527 -62.5125
-68.5 32.5518 -62.4831
-4.5 31.2771 -64.3585
-68.5 37.1786 -63.6386
-4.5 37.4502 -63.1043
-68.5 41.4846 -64.3954
-4.5 42.1809 -62.4357
-68.5 47.5993 -62.6237
-68.5 51.766 -64.7297
-4.5 51.2356 -61.7151
-68.5 57.2839 -62.8984
-4.5 56.1559 -62.07
-68.5 63.8548 -64.8108
-4.5 64.5887 -63.8704
-68.5 68.5719 -63.8943
-4.5 67.7033 -60.7762
-68.5 72.946 -63.5518
-4.5 70.3516 -64.9705
-68.5 79.7299 -63.483
-4.5 75.6658 -63.5594
-4.5 82.1675 -62.8696
-68.5 88.6904 -64.3404
-68.5 91.3676 -60.494
-4.5 90.7012 -62.5435
-68.5 96.3515 -64.0762
-4.5 97.077 -63.7667
-68.5 102.47 -62.9743
-4.5 102.004 -62.7475
-68.5 108.621 -63.2259
-4.5 107.633 -64.0687
-68.5 112.915 -64.2505
-4.5 113.879 -63.3284
-68.5 117.581 -62.8486
-68.5 123.411 -63.0646
-4.5 120.079 -63.3842
-68.5 128.17 -63.3924
-4.5 125.942 -63.0455
-68.5 132.829 -64.321
-4.5 130.241 -63.8264
-68.5 136.741 -61.8658
-4.5 137.305 -63.718
-68.5 142.525 -64.9251
-4.5 144.615 -63.3191
-68.5 145.397 -61.553
-4.5 148.966 -63.9372
-68.5 154.229 -60.0413
-4.5 152.91 -62.0227
-68.5 156.808 -64.0622
-4.5 159.244 -61.7508
-68.5 161.631 -60.6167
-4.5 162.45 -64.8701
-68.5 167.896 -63.1266
-4.5 168.29 -63.6345
-68.5 174.844 -62.8558
-4.5 173.702 -61.6842
-68.5 182.637 -63.7442
-4.5 182.158 -60.135
-68.5 187.771 -61.9891
-68.5 192.693 -61.1297
-68.5 197.618 -62.5315
-4.5 196.793 -64.9154
-4.5 200.794 -62.4305
-68.5 207.606 -61.9895
-4.5 206.758 -60.8304
-68.5 213.346 -62.5427
-4.5 212.814 -62.563
-4.5 217.16 -63.306
-72.3829 222.944 -63.7275
-68.9527 221.266 -61.2406
-1.94667 222.604 -62.3699
-76.7037 225.109 -62.01
2.9894 225.427 -62.5582
-76.8532 231.478 -64.3282
3.00824 232.464 -61.4088
-76.8347 236.072 -63.202
3.02986 238.929 -60.0902
-76.8181 241.995 -62.1879
2.96074 243.506 -64.3066
-76.8529 247.913 -64.3083
2.97881 249.559 -63.2046
-76.8388 253.161 -63.4497
2.97824 254.195 -63.2391
-76.8241 258.511 -62.5508
2.96572 263.473 -64.0028
-76.8163 268.782 -62.0742
2.98171 267.881 -63.0278
2.98936 272.415 -62.5608
-76.8079 275.456 -61.5625
3.03124 277.616 -60.0063
-76.8149 280.648 -61.9917
2.97942 280.664 -63.167
-76.8308 285.764 -62.9573
2.98046 286.277 -63.1041
-76.4483 292.728 -62.3064
2.98504 290.871 -62.8242
-70.0687 299.74 -63.8117
-1.21865 298.088 -63.6533
2.36814 295.226 -63.57
-68.5 304.046 -60.8514
-4.29131 301.952 -62.4094
-68.5 310.223 -60.3375
-4.5 313.048 -62.5229
-68.5 315.14 -60.6751
-4.5 317.918 -62.42
-68.5 320.467 -62.5586
-4.5 323.097 -60.3656
-68.5 326.537 -62.0658
-4.5 328.137 -62.0263
-68.5 332.278 -61.4082
-4.5 333.025 -64.3799
-66.8867 336.595 -62.8258
-6.06707 336.591 -61.9443
-63.1114 344.252 -63.8566
-51.6459 341.781 -64.95
-35.6538 342.932 -64.3776
-25.7172 343.493 -64.0987
-20.6948 343.768 -63.9622
-12.1796 343.128 -64.2801
-7.91155 340.302 -64.8015
-60.8894 348.714 -61.3134
-58.0084 345.472 -63.1153
-52.2044 347.076 -62.3182
-45.6812 346.518 -62.5954
-40.72 345.993 -62.8564
-31.3567 347.85 -61.9333
-26.0535 347.732 -61.9923
-18.0795 346.943 -62.3844
-12.2506 347.387 -61.1443
-57.2403 351.201 -60.2679
-35.1858 350.396 -60.6679
-68.5 27.6662 -58.3094
-4.5 27.3789 -57
-68.5 31.709 -55.2792
-4.5 34.4561 -56.742
-68.5 36.7106 -58.89
-4.5 39.0072 -57.1454
-68.5 42.1469 -57.3554
-68.5 47.1579 -56.3821
-4.5 46.2916 -59.7877
-68.5 54.2035 -57.7662
-4.5 52.3975 -56.915
-68.5 58.9893 -57.5428
-4.5 58.0202 -55.3083
-68.5 63.3272 -59.9609
-4.5 62.6634 -58.4222
-68.5 66.8192 -57.2627
-68.5 71.9114 -59.0431
-4.5 73.7326 -59.6356
-68.5 76.9185 -59.0661
-4.5 78.3195 -58.8764
-68.5 82.009 -59.7326
-68.5 87.1442 -59.3275
-4.5 87.9281 -59.0616
-68.5 92.9929 -55.692
-4.5 92.6564 -55.2435
-68.5 96.8835 -57.5131
-4.5 96.2228 -59.4082
-68.5 102.378 -56.1138
-4.5 102.27 -56.2293
-68.5 107.62 -57.7542
-4.5 107.278 -57.7595
-68.5 112.402 -59.6586
-4.5 113.252 -58.1801
-68.5 116.63 -57.7298
-4.5 119.287 -58.9017
-68.5 122.314 -58.0288
-4.5 123.474 -57.2583
-68.5 127.61 -57.9706
-4.5 128.095 -58.1327
-68.5 131.706 -56.2264
-4.5 133.14 -57.6401
-68.5 136.117 -57.3319
-4.5 136.717 -59.0696
-68.5 142.011 -57.0647
-4.5 141.43 -58.1759
-68.5 149.366 -59.2808
-4.5 146.328 -58.3237
-4.5 150.896 -58.1044
-68.5 158.169 -57.9163
-4.5 158.575 -55.7337
-68.5 163.168 -55.1427
-4.5 164.668 -59.2052
-68.5 166.939 -58.7979
-4.5 167.362 -55.0736
-68.5 171.457 -57.9442
-4.5 170.122 -59.174
-68.5 177.404 -56.7502
-4.5 176.827 -58.5203
-68.5 184.331 -59.0999
-4.5 182.19 -55.3649
-68.5 186.775 -55.1803
-4.5 188.443 -57.5048
-4.5 193.305 -57.5928
-68.5 195.626 -56.7553
-4.5 198.637 -58.0109
-68.5 203.978 -58.3791
-4.5 203.876 -57.5398
-68.5 210.739 -55.1774
-4.5 211.036 -58.5285
-68.5 218.12 -57.7756
-4.5 217.749 -58.8095
-72.2618 222.955 -56.6764
-76.7278 225.837 -56.6793
-76.7213 231.002 -56.2853
3.0815 232.357 -56.94
-76.7353 235.477 -57.1351
3.09429 236.999 -56.16
-76.7433 240.698 -57.6262
3.07716 243.301 -57.2051
-76.7675 245.892 -59.099
3.07878 249.083 -57.106
-76.7416 250.012 -57.5197
3.06632 254.533 -57.8664
-76.7462 257.18 -57.8011
3.0375 259.333 -59.6242
-76.7439 263.092 -57.6628
3.08282 263.868 -56.8596
-76.7017 269.258 -55.0904
3.10791 268.704 -55.3292
-76.7621 271.716 -58.7738
-76.7147 275.462 -55.8802
-76.7301 280.063 -56.8175
3.06906 281.84 -57.6995
-76.7582 286.299 -58.5374
3.07162 286.258 -57.543
-76.7377 291.155 -57.287
3.05413 292.063 -58.6101
-72.3225 298.001 -58.6929
-2.07901 298.799 -56.956
0.864222 296.442 -59.178
-4.5 302.975 -56.0125
-68.5 306.518 -56.8549
-4.5 307.409 -57.1542
-68.5 313.505 -55.9714
-4.5 313.06 -57.2402
-68.5 319.354 -57.5252
-4.5 317.7 -56.9098
-68.5 323.51 -58.8904
-4.5 326.076 -55.6285
-68.5 331.614 -56.8996
-4.5 331.725 -57.6247
-66.5151 337.392 -57.6293
-7.24611 338.963 -56.4473
-64.422 341.302 -58.8492
-9.18001 342.854 -56.9864
-61.574 347.098 -57.1772
-11.1862 346.891 -56.3071
-50.4067 351.825 -59.9579
-46.2352 353.619 -59.0662
-39.8063 351.756 -59.9923
-26.8069 352.615 -59.5655
-20.0034 352.26 -59.7416
-15.6324 354.432 -58.6623
-57.1601 356.24 -57.7952
-47.5522 357.497 -57.1389
-41.3783 355.755 -58.0045
-37.752 357.29 -57.2417
-32.738 357.523 -57.1261
-22.3661 356.559 -57.605
-16.7346 358.055 -55.5613
-48.9923 361.167 -55.3151
-29.2945 360.779 -55.5078
-23.8017 361.48 -55.1593
-68.5 27.2927 -53.8891
-4.5 26.3925 -51.8469
-68.5 31.5947 -50.7364
-4.5 31.9048 -51.6198
-68.5 36.3808 -50.2852
-4.5 36.5139 -50.0926
-4.5 41.5 -51.5517
-68.5 47.4758 -52.0526
-4.5 47.9933 -54.2146
-4.5 51.0303 -50.8599
-68.5 57.8148 -51.84
-4.5 56.0659 -50.7854
-68.5 64.9447 -50.4397
-4.5 61.7027 -52.214
-4.5 66.0927 -52.6107
-68.5 72.1857 -52.769
-4.5 71.2171 -53.444
-68.5 78.8234 -54.8705
-4.5 75.9579 -52.7106
-68.5 83.2522 -54.354
-4.5 82.5864 -53.833
-68.5 87.9975 -54.9527
-4.5 89.165 -50.6323
-68.5 90.1821 -50.7346
-68.5 95.629 -51.264
-4.5 97.0067 -52.4389
-68.5 100.65 -51.1942
-4.5 101.88 -51.3926
-68.5 106.431 -53.5018
-4.5 107.203 -50.6544
-68.5 113.522 -53.2539
-4.5 112.47 -51.0896
-68.5 118.88 -52.1427
-4.5 118.249 -53.0685
-68.5 127.598 -52.6183
-4.5 126.633 -53.2509
-4.5 131.534 -51.6264
-68.5 136.451 -52.0667
-4.5 137.92 -53.6982
-68.5 140.669 -50.145
-4.5 142.21 -52.0349
-68.5 147.988 -52.6365
-4.5 149.15 -52.5994
-68.5 153.045 -51.4525
-4.5 153.284 -54.2172
-68.5 158.951 -53.3651
-68.5 164.862 -50.9698
-4.5 162.653 -53.8782
-68.5 169.188 -52.2894
-4.5 167.789 -50.4058
-4.5 172.165 -51.9429
-4.5 176.874 -52.7255
-68.5 180.161 -53.1495
-68.5 187.767 -50.6387
-68.5 192.954 -52.1259
-68.5 199.22 -51.6186
-4.5 197.023 -53.3915
-68.5 203.898 -53.8829
-4.5 200.945 -50.3795
-68.5 208.652 -50.9145
-4.5 205.538 -52.5016
-68.5 213.997 -50.7399
-4.5 213.029 -54.2784
-68.5 217.508 -53.3318
-4.5 219.279 -54.3414
-72.051 222.894 -52.1747
-0.673386 223.21 -50.6823
1.40043 224.283 -54.6905
-76.661 228.288 -52.6038
3.13885 228.368 -53.4417
-76.6235 234.674 -50.3164
3.16077 233.707 -52.1047
-76.6667 238.516 -52.9542
3.1629 239.159 -51.9748
-76.6761 243.218 -53.5255
-76.6594 248.97 -52.5047
3.15274 246.936 -52.5948
-76.6861 253.637 -54.1329
3.17224 251.324 -51.4049
-76.6521 259.583 -52.0596
3.13063 257.757 -53.9432
3.17025 262.612 -51.5267
-76.6396 265.922 -51.2968
-76.624 270.681 -50.348
3.18741 270.109 -50.4801
3.12252 277.678 -54.4383
-76.6662 282.59 -52.9202
3.14176 282.246 -53.2647
-76.6892 287.578 -54.3235
3.14005 289.637 -53.3685
-76.6607 292.144 -52.5892
-72.1684 298.213 -53.5653
2.17748 295.417 -52.6836
-68.5 304.351 -52.1594
-4.5 301.793 -51.5837
-68.5 308.771 -52.7923
-4.5 308.789 -50.2624
-68.5 313.119 -50.8563
-4.5 314.33 -51.6056
-68.5 317.345 -52.6272
-68.5 323.828 -51.0941
-4.5 320.927 -52.6541
-68.5 328.366 -51.663
-4.5 326.569 -50.4383
-4.5 330.684 -52.4632
-67.6097 335.484 -50.765
-5.74028 335.934 -53.628
-64.9554 340.367 -54.4362
-8.6702 341.829 -51.7472
-61.9099 346.144 -51.8437
-10.6725 345.857 -51.7447
-59.8082 350.628 -54.8193
-12.8392 350.217 -51.4735
-57.5332 355.254 -53.383
-15.3958 355.361 -52.3342
-54.7409 361.049 -54.0285
-44.1429 361.907 -54.9472
-36.68 363.263 -54.2731
-31.9602 364.956 -53.4319
-18.6648 362.518 -52.2295
-52.0455 366.536 -52.4706
-47.3597 369.994 -52.3462
-44.6594 366.321 -52.7535
-39.1767 366.565 -52.6321
-34.7455 368.311 -52.3462
-25.745 365.299 -53.2611
-24.9016 369.885 -52.3462
-50.1744 373.35 -52.3462
-45.8318 374.162 -52.3462
-42.2363 370.133 -52.3462
-37.6548 372.194 -52.3462
-33.1282 372.408 -52.3462
-29.3213 370.115 -52.3462
-20.2664 372.951 -52.3462
-48.7028 377.482 -52.3462
-43.046 377.803 -52.3462
-35.6253 377.359 -52.3462
-30.8101 376.467 -52.3462
-26.2286 375.649 -52.3462
-21.2063 379.935 -52.3462
-49.7017 382.231 -52.3462
-41.9305 384.576 -52.3462
-37.9823 382.781 -52.3462
-33.3486 382.28 -52.3462
-25.6018 380.117 -52.3462
-51.5951 388.672 -52.3462
-46.3921 388.144 -52.3462
-39.9446 388.606 -52.3462
-32.7832 387.568 -52.3462
-27.7226 387.696 -52.3462
-22.4705 387.479 -52.3017
-48.7553 392.084 -52.3462
-43.747 392.039 -52.3462
-39.1782 393.163 -52.3462
-33.7179 391.841 -52.3462
-21.8839 394.167 -52.3462
-51.9884 395.073 -52.3462
-46.7144 398.127 -52.3462
-37.4445 397.339 -52.3462
-30.8857 395.29 -52.3462
-26.0089 397.654 -52.3462
-51.75 401.818 -52.548
-46.3338 403.184 -52.3462
-39.2067 402.243 -52.3462
-33.1918 402.109 -52.3462
-28.5452 401.445 -52.3462
-22.0224 403.368 -52.3462
-51.4852 407.063 -53.4376
-47.268 408.335 -52.0594
-43.0214 406.215 -52.2718
-36.8214 406.191 -52.2743
-31.6369 407.972 -52.0958
-27.0129 406.598 -52.2336
-50.6838 411.853 -52.3184
-45.7297 413.561 -51.5358
-41.5836 410.405 -51.852
-37.1172 410.848 -51.8076
-32.5334 412.577 -51.6343
-27.0733 412.3 -51.6621
-20.8554 411.851 -51.7071
-49.437 419.335 -51.2437
-42.9462 417.387 -51.1523
-39.2536 419.612 -50.9294
-34.2138 418.382 -51.0526
-29.2653 416.537 -51.2375
-22.4722 415.84 -50.5176
-41.0083 423.626 -50.5271
-36.1414 422.758 -50.6141
-30.5827 423.632 -50.5265
-27.0517 420.711 -50.8192
-22.0043 420.45 -50.8453
-47.974 428.141 -50.6019
-43.5749 427.763 -50.1126
-39.1624 427.894 -50.0994
-33.0441 427.283 -50.1607
-25.5469 426.159 -50.2732
-68.5 26.057 -46.6973
-4.5 26.9004 -47.2089
-68.5 34.2067 -46.2915
-4.5 31.2952 -46.7518
-4.5 36.8186 -45.6316
-68.5 40.4874 -47.1563
-4.5 43.606 -47.5173
-68.5 49.1358 -46.5465
-4.5 48.3043 -46.7926
-68.5 56.0541 -47.9972
-4.5 57.2052 -45.0582
-68.5 62.3309 -46.7827
-4.5 61.1456 -47.5888
-68.5 68.8388 -46.8788
-4.5 66.519 -46.1817
-68.5 74.0074 -47.4036
-4.5 72.2983 -45.8661
-68.5 79.272 -48.8281
-4.5 78.2489 -45.7079
-4.5 81.2801 -48.9522
-68.5 86.2275 -47.8384
-4.5 85.5498 -47.6722
-68.5 91.9151 -46.4227
-4.5 92.8005 -48.1356
-68.5 97.2037 -46.739
-68.5 102.747 -47.3137
-68.5 106.959 -45.9998
-4.5 109.139 -46.5625
-68.5 111.58 -49.0039
-4.5 113.746 -45.5819
-68.5 116.023 -48.3066
-4.5 118.524 -45.4671
-68.5 122.492 -45.8648
-4.5 121.235 -49.5987
-68.5 127.574 -46.8122
-4.5 125.73 -48.6317
-4.5 132.673 -46.7799
-68.5 136.434 -46.4246
-68.5 144.27 -46.2893
-4.5 142.687 -47.6756
-4.5 147.199 -48.3605
-68.5 151.004 -47.4703
-4.5 152.399 -49.3045
-68.5 156.229 -46.1638
-4.5 158.007 -47.4657
-68.5 162.195 -47.2486
-4.5 162.714 -49.0418
-4.5 167.597 -45.5775
-4.5 172.475 -46.7026
-68.5 177.205 -48.1483
-4.5 178.676 -48.4873
-68.5 182.845 -49.6921
-4.5 183.178 -47.952
-68.5 189.046 -46.178
-4.5 188.468 -47.5624
-4.5 193.591 -45.7664
-68.5 199.119 -46.6978
-68.5 204.186 -49.3961
-4.5 202.345 -45.6068
-4.5 207.659 -47.0698
-68.5 211.537 -45.2224
-4.5 212.283 -49.7519
-68.5 218.17 -45.8307
-4.5 215.505 -46.6019
-69.9296 221.884 -47.7141
-3.69026 221.438 -47.8996
-76.5766 226.383 -47.455
3.17347 227.25 -47.7235
-76.5757 231.09 -47.401
-76.5944 239.285 -48.5442
3.24792 235.492 -46.7885
-76.5701 243.268 -47.0602
3.2642 243.543 -45.7954
-76.5375 247.283 -45.0686
3.24676 249.851 -46.8592
-76.5919 250.515 -48.3857
3.22408 254.414 -48.2428
-76.5818 256.287 -47.7746
-76.546 263.328 -45.5902
3.23336 264.877 -47.6769
-76.5543 271.867 -46.0931
3.19787 274.809 -49.842
-76.6102 275.16 -49.5053
3.24953 277.504 -46.6904
-76.5902 280.21 -48.2858
3.25635 284.166 -46.2747
-76.5764 286.193 -47.4453
-76.5917 290.845 -48.3794
3.15106 292.442 -48.3041
-72.4232 298.086 -48.5375
-1.56209 298.422 -47.6691
-68.5 303.002 -46.8308
-4.5 303.578 -46.6029
-68.5 307.271 -48.1581
-4.5 308.846 -45.4107
-68.5 313.285 -46.1436
-68.5 318.139 -48.2272
-4.5 316.944 -48.0343
-68.5 322.417 -46.825
-4.5 321.594 -47.7745
-68.5 331.584 -48.6123
-5.84303 336.14 -49.2003
-64.833 340.708 -48.7318
-9.77535 344.052 -46.802
-61.5723 346.82 -47.4596
-11.7808 348.087 -47.0536
-59.4601 351.059 -48.9505
-14.0757 352.705 -47.7174
-56.6744 356.733 -47.3835
-16.4132 357.408 -45.9554
-54.0521 362.136 -47.1974
-18.9095 362.431 -46.3425
-21.2094 367.885 -47.8151
-51.75 370.442 -49.4076
-21.25 375 -48.0641
-51.75 375.641 -48.682
-21.25 378.701 -45.3884
-51.75 382.513 -48.3021
-21.25 383.164 -46.1538
-21.25 387.697 -46.1519
-51.75 390.718 -47.8423
-21.25 392.22 -46.9664
-51.75 395.375 -47.8142
-21.25 396.714 -47.1748
-51.75 400.036 -47.6833
-21.25 403.009 -46.8727
-51.7455 405.195 -46.8995
-21.4778 407.405 -48.9933
-50.6658 411.76 -47.86
-22.011 411.927 -47.2083
-49.8409 416.674 -46.3609
-48.6054 424.219 -48.1968
-24.1297 429.897 -47.8101
-47.149 432.983 -47.4862
-42.0041 432.677 -49.6201
-37.624 433.242 -49.5635
-32.7252 431.858 -49.7022
-28.421 430.915 -49.7967
-24.0767 434.3 -49.4574
-46.671 438.225 -49.0641
-42.3635 437.411 -49.1457
-36.632 437.789 -49.1078
-31.2216 436.392 -49.2479
-25.9528 439.372 -48.9492
-40.5907 442.047 -48.6812
-35.5083 442.763 -48.6093
-30.8087 440.731 -48.813
-27.5286 443.81 -47.2014
-44.9119 446.527 -48.2134
-38.4899 447.499 -48.1348
-33.9337 448.039 -48.0806
-27.5474 448.347 -48.0498
-42.8557 450.977 -47.7863
-35.9488 452.598 -47.6238
-26.8989 453.35 -47.5484
-43.1908 456.891 -47.5347
-37.4117 458.237 -47.0587
-32.8649 456.988 -47.1839
-27.5144 458.604 -46.7729
-38.8814 462.395 -46.6421
-31.102 461.477 -46.734
-41.7225 465.724 -46.7493
-35.9741 466.595 -46.2212
-31.1977 466.778 -46.2028
-40.5592 472.5 -45.6294
-34.9416 471.76 -45.7035
-28.8523 470.76 -45.8038
-39.0713 477.983 -45.08
-33.8866 478.495 -45.0287
-29.4585 475.093 -45.5355
-68.5 26.2174 -41.4078
-4.5 26.3939 -40.236
-68.5 32.2055 -42.1411
-4.5 31.3036 -40.7263
-68.5 37.8854 -43.2887
-4.5 38.6112 -40.2439
-68.5 41.3285 -40.0053
-4.5 42.3749 -42.8284
-68.5 46.2361 -42.3933
-4.5 46.736 -42.292
-68.5 51.8062 -42.6176
-4.5 52.9302 -42.5069
-68.5 57.6707 -43.8023
-4.5 60.1413 -41.6493
-68.5 67.6426 -42.0891
-4.5 65.2375 -41.3836
-68.5 74.7556 -41.7242
-4.5 70.7832 -40.598
-68.5 79.0648 -40.8501
-4.5 75.5804 -40.7738
-68.5 82.3129 -44.9557
-4.5 82.1004 -42.1555
-68.5 85.1671 -40.5058
-4.5 88.9698 -44.8382
-68.5 91.4893 -40.4795
-4.5 92.2839 -40.6965
-68.5 96.4369 -40.544
-4.5 97.7655 -43.576
-68.5 101.838 -41.4757
-4.5 104.661 -44.2037
-68.5 109.467 -41.3828
-68.5 113.897 -43.0584
-4.5 111.145 -41.1542
-68.5 118.394 -43.5418
-68.5 122.54 -41.0322
-4.5 122.311 -42.3847
-68.5 128.136 -40.6841
-4.5 128.409 -41.24
-68.5 132.659 -40.4909
-68.5 138.404 -42.4737
-4.5 138.123 -44.3974
-4.5 142.99 -40.2854
-68.5 146.936 -42.8066
-4.5 147.354 -43.8322
-68.5 151.777 -42.9801
-4.5 153.147 -42.7144
-68.5 156.21 -41.0611
-68.5 162.394 -41.9173
-4.5 163.564 -41.8447
-68.5 170.057 -44.9292
-4.5 170.643 -42.1392
-68.5 178.219 -42.1086
-4.5 177.281 -42.0734
-68.5 182.675 -43.1197
-4.5 181.259 -43.8693
-4.5 186.116 -43.6162
-68.5 191.932 -41.5952
-4.5 190.27 -42.2443
-68.5 196.83 -42.5429
-4.5 195.968 -41.5799
-68.5 202.894 -42.1475
-4.5 203.371 -41.018
-68.5 207.337 -42.7943
-4.5 209.338 -40.4471
-4.5 211.758 -44.3466
-72.9876 223.425 -43.6367
-69.0432 221.477 -42.8865
-2.4743 222.128 -42.001
-76.5023 227.548 -42.9251
3.30633 226.649 -43.2254
-76.5038 233.452 -43.0107
3.33611 230.774 -41.4087
-76.4793 238.413 -41.5181
3.33657 235.826 -41.3806
-76.4672 243.354 -40.7816
3.31614 240.075 -42.6273
3.32044 246.292 -42.3649
-76.5083 253 -43.2865
3.33795 250.934 -41.2965
-76.4681 259.15 -40.8388
3.30712 257.386 -43.1774
-76.5061 267.762 -43.1519
3.30549 265.886 -43.2767
3.30907 270.517 -43.0582
-76.4932 275.532 -42.371
3.32796 278.405 -41.9062
-76.5069 281.106 -43.2063
3.33393 284.644 -41.5419
-76.5171 290.984 -43.8275
3.33067 290.107 -41.741
-72.2582 298.332 -42.503
1.4498 296.031 -43.4349
-68.6431 301.25 -40.5505
-4.5 301.803 -42.3252
-68.5 305.899 -41.47
-68.5 310.283 -42.0602
-4.5 312.221 -43.1074
-68.5 316.018 -42.7179
-4.5 318.486 -43.4546
-68.5 320.562 -42.4092
-4.5 324.836 -44.5833
-68.5 327.484 -43.0317
-68.5 333.249 -40.2274
-4.5 330.323 -42.7185
-66.8698 337 -43.9884
-5.89755 336.25 -43.1482
-7.872 340.223 -44.1668
-62.2454 345.67 -42.1107
-10.9305 346.377 -42.8518
-58.5746 352.561 -42.2766
-13.0381 350.617 -42.7352
-55.9114 357.986 -40.8082
-16.2646 357.109 -40.658
-53.4202 363.227 -42.8294
-51.75 367.317 -44.1697
-20.9029 366.396 -41.027
-51.75 370.943 -42.5054
-21.25 371.797 -43.9727
-51.75 376.137 -44.2142
-51.75 381.611 -44.1366
-21.25 384.769 -40.7637
-51.75 386.052 -43.3475
-51.75 391.397 -42.3032
-21.25 391.103 -42.0668
-51.75 396.422 -43.2403
-21.25 395.702 -42.3645
-51.75 401.375 -42.348
-21.25 401.118 -40.4073
-51.1873 408.371 -42.5636
-21.5232 407.79 -42.0119
-50.253 414.02 -42.7133
-22.2634 414.068 -40.4932
-49.5615 418.128 -41.198
-22.5823 416.773 -44.0905
-48.9609 421.86 -43.5092
-23.2781 422.674 -44.6236
-48.0774 427.146 -42.4086
-23.736 426.558 -41.5481
-46.9116 434.122 -40.9654
-24.4459 432.579 -43.5744
-46.3949 437.407 -44.5994
-24.9408 436.776 -40.6125
-45.6199 441.995 -42.5691
-44.5507 448.424 -41.924
-26.2524 447.901 -43.7052
-43.8352 452.768 -42.4195
-27.1268 455.316 -43.2043
-42.3556 461.729 -42.9635
-27.7584 460.673 -42.0958
-41.6292 466.052 -41.5587
-28.4715 466.722 -42.2897
-40.033 475.662 -40.881
-29.7597 477.647 -41.4174
-38.8083 483.112 -42.0427
-32.132 482.348 -44.3648
-38.0538 487.632 -41.251
-30.7969 486.445 -42.7979
-32.7659 492.154 -43.6599
-36.6677 496.097 -43.3041
-32.4444 498.504 -43.0236
-35.83 501.284 -42.7449
-68.5 27.1851 -36.4719
-68.5 33.6456 -36.5023
-4.5 30.9369 -36.04
-4.5 35.2138 -37.4987
-4.5 43.8633 -38.1398
-68.5 45.5915 -37.8073
-68.5 50.2497 -37.9774
-4.5 52.3792 -38.1286
-68.5 57.5099 -38.4489
-68.5 64.6846 -37.4074
-4.5 61.0582 -36.7099
-4.5 67.1274 -36.7204
-68.5 71.0738 -35.5964
-4.5 73.4799 -35.9095
-68.5 76.7985 -36.1605
-4.5 78.4698 -36.3265
-4.5 83.155 -37.2727
-4.5 88.7215 -37.6404
-68.5 91.9495 -35.8309
-4.5 94.2585 -36.1377
-68.5 98.8299 -36.3894
-4.5 98.3163 -38.5672
-4.5 102.924 -39.5465
-68.5 108.443 -36.6033
-4.5 107.355 -37.2711
-68.5 113.535 -38.6878
-68.5 117.686 -36.5158
-4.5 116.809 -38.4217
-4.5 122.585 -37.1099
-68.5 125.508 -37.0339
-4.5 128.452 -35.9456
-4.5 133.797 -36.9556
-68.5 137.021 -37.558
-4.5 137.001 -39.3169
-68.5 143.113 -39.6673
-4.5 144.504 -35.9824
-4.5 149.98 -38.6231
-68.5 150.196 -37.1599
-4.5 154.062 -35.8292
-4.5 158.748 -39.8048
-68.5 160.234 -38.5403
-4.5 163.019 -35.4221
-68.5 166.29 -35.8271
-4.5 167.555 -38.6555
-68.5 172.978 -37.5955
-4.5 174.009 -38.8542
-68.5 177.588 -37.2607
-68.5 182.606 -36.0575
-4.5 183.284 -38.7937
-68.5 187.908 -39.506
-4.5 188.621 -37.7453
-68.5 194.35 -37.2932
-4.5 194.948 -37.0972
-68.5 199.933 -36.2065
-68.5 204.642 -36.1055
-4.5 200.871 -36.913
-68.5 209.455 -35.6289
-4.5 205.789 -37.1377
-4.5 212.198 -37.6124
-68.5 215.072 -39.6119
-4.5 218.287 -37.9432
-72.7674 223.361 -38.1238
-68.5 221.034 -37.9261
-0.682143 223.143 -37.6741
-76.4243 225.863 -38.164
3.40595 228.559 -37.1487
-76.4261 232.179 -38.2746
3.40172 233.949 -37.4067
-76.4027 236.618 -36.8487
3.40857 238.912 -36.989
-76.4053 241.042 -37.0071
3.38916 243.586 -38.1725
-76.3923 245.39 -36.2139
3.39966 248.006 -37.5324
-76.4098 250.5 -37.2819
3.40419 254.795 -37.256
-76.4028 257.125 -36.8507
3.42232 259.214 -36.1497
-76.4391 264.427 -39.0685
3.36379 262.296 -39.7206
-76.3965 268.511 -36.4674
3.39214 266.34 -37.9912
-76.4503 271.668 -39.7517
3.36326 273.71 -39.7531
-76.4204 275.682 -37.9307
3.40954 277.294 -36.9299
-76.4133 280.841 -37.4953
3.39066 281.87 -38.0813
-76.4478 285.235 -39.5973
-76.4219 293.01 -38.0164
3.41363 290.772 -36.6801
-71.8107 298.768 -37.8926
-1.84558 298.701 -38.3263
2.41136 295.279 -38.9255
-68.5 303.827 -36.9652
-4.5 301.801 -35.8127
-68.5 309.599 -37.6425
-4.5 306.914 -38.579
-4.5 311.168 -35.571
-68.5 319.213 -38.0575
-4.5 315.194 -37.7473
-68.5 324.981 -38.8477
-4.5 320.717 -39.1605
-68.5 328.967 -36.5544
-4.5 325.068 -38.0992
-66.8619 337.114 -38.9567
-5.5493 335.549 -37.667
-64.5971 341.419 -35.0423
-8.91755 342.326 -38.5769
-61.2208 347.669 -37.7496
-12.1323 348.795 -37.5172
-14.3433 353.243 -37.2715
-57.0726 355.439 -36.4154
-16.3105 357.194 -36.1042
-54.4156 360.906 -37.3882
-18.5756 361.734 -38.8828
-51.75 367.135 -36.2269
-51.75 372.546 -36.2402
-21.25 372.659 -37.3687
-51.75 376.453 -39.7732
-51.75 381.114 -38.4155
-21.25 380.201 -39.2279
-51.75 386.262 -38.3576
-21.25 388.109 -37.9015
-51.75 390.691 -36.4929
-21.25 393.922 -37.2547
-51.75 396.861 -38.0401
-51.75 404.596 -38.7821
-21.4113 406.841 -36.6772
-50.5029 412.273 -37.4686
-22.0921 412.615 -35.1559
-49.4494 418.607 -36.8279
-23.1542 421.623 -37.7975
-48.3886 425.082 -38.3422
-23.7136 426.367 -37.0478
-47.3558 431.275 -37.3406
-24.2353 430.792 -36.3641
-46.171 438.546 -39.8827
-25.0784 437.943 -35.9237
-45.8414 440.346 -35.6648
-25.5256 441.736 -38.1781
-45.0214 445.414 -38.2424
-26.0093 445.839 -39.6005
-44.0532 451.158 -35.9266
-26.5495 450.421 -39.2934
-43.1925 456.424 -37.4459
-27.4049 457.676 -38.0913
-41.847 464.508 -36.4945
-27.8977 461.855 -36.9166
-28.4944 466.916 -37.6626
-40.6674 471.696 -37.9031
-29.0308 471.466 -39.6654
-36.9164 478.757 -35.3384
-39.287 480.074 -38.823
-30.3341 482.114 -37.8804
-37.8569 486.821 -36.8231
-33.188 487.395 -36.9286
-37.1389 493.032 -38.4619
-31.8103 493.209 -37.9991
-36.33 497.76 -38.8369
-32.7928 503.373 -39.8843
-68.5 26.3691 -30.271
-4.5 26.5207 -34.176
-68.5 30.7089 -32.9374
-4.5 34.1356 -32.1974
-68.5 37.1763 -33.0892
-68.5 42.0731 -31.8798
-4.5 41.2592 -34.4079
-4.5 46.1705 -32.7635
-68.5 51.2345 -31.2271
-4.5 51.8856 -32.5907
-68.5 55.7708 -33.9567
-4.5 58.0799 -32.616
-68.5 60.1752 -33.9268
-4.5 64.341 -32.3304
-68.5 66.2203 -33.1017
-4.5 69.5701 -32.898
-68.5 73.5318 -31.7433
-68.5 78.3202 -30.6228
-4.5 76.3808 -30.7715
-68.5 81.9922 -34.7755
-4.5 80.6462 -31.7116
-68.5 86.1918 -32.7387
-4.5 85.6122 -32.2697
-68.5 93.7579 -31.6856
-4.5 94.4684 -31.6917
-68.5 102.644 -32.6358
-4.5 100.435 -31.5009
-4.5 108.132 -31.4656
-68.5 113.107 -34.3159
-4.5 111.349 -34.5161
-68.5 117.241 -32.1553
-4.5 116.57 -33.1921
-68.5 123.79 -32.1011
-4.5 124.077 -31.9567
-68.5 129.084 -33.762
-68.5 133.636 -34.2658
-4.5 131.636 -30.7887
-68.5 137.807 -30.7991
-4.5 139.277 -34.3511
-68.5 141.451 -33.4544
-4.5 141.802 -30.7353
-68.5 147.722 -32.8983
-4.5 146.731 -30.8121
-68.5 152.783 -33.1648
-4.5 151.931 -31.937
-68.5 158.649 -34.2315
-4.5 158.238 -32.0566
-68.5 161.688 -30.002
-68.5 167.227 -30.2887
-4.5 165.591 -31.816
-68.5 170.386 -34.0496
-4.5 172.442 -34.5967
-68.5 176.824 -32.5357
-4.5 179.332 -30.4357
-68.5 181.319 -31.0216
-4.5 183.09 -33.1869
-68.5 188.395 -34.8724
-4.5 187.668 -32.8182
-68.5 193.936 -32.4684
-4.5 192.579 -32.9668
-68.5 199.832 -30.3534
-4.5 197.502 -32.5562
-68.5 204.154 -31.3542
-68.5 209.935 -30.7327
-4.5 207.8 -31.9027
-68.5 213.702 -34.2224
-68.5 219.253 -32.7424
-4.5 216.531 -33.3084
-73.5553 223.788 -33.4698
-2.52973 222.016 -32.4784
-76.3715 229.047 -34.9416
3.48286 226.911 -31.7236
-76.3201 234.176 -31.8092
3.47511 232.916 -32.9298
-76.3153 239.664 -31.5135
3.51344 237.872 -30.5917
3.47187 241.909 -33.1275
-76.3199 245.626 -31.7999
3.52296 245.237 -30.0113
-76.3473 252.893 -33.4654
3.49688 250.5 -31.6018
-76.3355 260.151 -32.7459
3.50388 260.573 -31.1752
-76.3142 267.543 -31.4518
3.46541 265.081 -33.5218
-76.3489 273.571 -33.5681
3.49199 271.647 -31.9
-76.3068 278.489 -30.9981
3.50776 279.091 -30.9385
-76.3425 282.893 -33.1738
3.45832 283.458 -33.9543
-76.3313 289.28 -32.4912
3.50084 287.787 -31.3605
-75.9718 294.579 -32.282
-1.58897 298.53 -31.4821
1.50486 296.019 -34.3759
-69.6218 300.604 -32.7213
-4.5 303.961 -31.2722
-68.5 307.185 -33.3326
-4.5 308.566 -31.17
-68.5 314.183 -33.5505
-68.5 319.836 -33.1978
-4.5 316.375 -32.6847
-4.5 322.657 -33.5322
-68.5 327.048 -33.0161
-4.5 329.936 -30.9783
-68.5 334.087 -32.8084
-4.5 333.296 -33.9147
-6.64618 337.756 -32.4709
-8.75737 342.004 -30.2072
-60.6073 348.914 -32.6781
-10.7468 346.007 -30.685
-13.2503 351.044 -33.3712
-57.0023 355.689 -30.387
-17.7073 359.964 -31.4279
-53.4023 362.804 -33.4186
-19.3978 363.355 -34.1003
-51.75 369.613 -30.5846
-21.1127 367.391 -32.4743
-51.75 374.683 -30.7014
-21.25 370.956 -30.4791
-51.75 377.487 -34.8526
-21.25 378.274 -32.376
-51.75 382.46 -33.811
-21.25 383.268 -32.5077
-51.75 386.081 -30.6022
-51.75 391.122 -31.5404
-21.25 390.074 -32.2322
-51.75 395.886 -33.0127
-21.25 397.373 -33.5446
-51.7229 402.689 -33.3399
-21.25 404.339 -32.8821
-21.7652 409.843 -31.4108
-50.6486 411.192 -33.0129
-22.3571 414.862 -30.6879
-49.6745 417.046 -32.3613
-22.629 417.169 -34.5353
-48.8422 422.122 -33.456
-23.2917 422.79 -30.2216
-48.1124 426.513 -33.0821
-23.8139 427.218 -31.4218
-47.4167 430.659 -31.8496
-46.6397 435.405 -33.0387
-24.822 435.769 -31.9403
-45.3091 443.397 -32.049
-25.3485 440.234 -31.3414
-40.3941 449.842 -30.0149
-26.0003 445.763 -34.3899
-43.8032 452.92 -30.5816
-36.737 452.432 -30.4917
-30.3399 454.73 -30.9148
-26.6022 450.868 -34.5603
-43.2824 459.26 -31.7488
-39.138 457.215 -31.3724
-27.3737 458.556 -31.6192
-40.6663 462.993 -32.4362
-36.5019 461.047 -32.0778
-32.2008 462.513 -32.3477
-41.2597 467.927 -33.6754
-35.7536 469.487 -33.6317
-28.535 466.991 -33.1722
-35.8079 474.474 -34.5499
-30.4213 471.599 -34.0205
-40.3119 475.533 -34.7448
-29.5602 475.955 -34.7579
-68.5 27.0026 -25.9306
-4.5 26.3686 -29.3883
-68.5 31.1656 -28.436
-4.5 31.3389 -28.6662
-68.5 37.5311 -26.1539
-4.5 36.9754 -27.0146
-68.5 42.6417 -25.7694
-4.5 42.4918 -27.0965
-68.5 45.6342 -29.0821
-4.5 47.809 -26.9956
-68.5 54.4921 -26.2611
-68.5 59.1682 -27.2189
-4.5 55.3219 -29.1916
-68.5 64.5226 -27.4041
-4.5 60.2003 -27.3127
-4.5 67.077 -28.4518
-68.5 72.2025 -27.5813
-4.5 71.9147 -28.7448
-4.5 75.6599 -25.7593
-68.5 81.4405 -27.2043
-4.5 80.7881 -27.2661
-68.5 89.2817 -27.0106
-4.5 87.7505 -27.4695
-68.5 93.6641 -27.2586
-4.5 93.3431 -27.0517
-68.5 101.57 -27.3092
-4.5 102.029 -26.6693
-68.5 106.278 -28.4173
-68.5 112.595 -29.7606
-4.5 111.549 -26.0809
-68.5 117.642 -26.945
-4.5 116.188 -28.1239
-68.5 122.21 -27.6731
-4.5 120.528 -27.0623
-68.5 127.185 -28.406
-4.5 127.403 -27.4623
-68.5 132.262 -27.3615
-68.5 135.92 -25.9586
-4.5 135.578 -27.8268
-68.5 143.089 -27.981
-4.5 144.003 -26.7835
-68.5 147.385 -25.6027
-4.5 149.746 -27.5678
-68.5 152.222 -26.9289
-68.5 156.585 -28.5189
-4.5 155.245 -28.6362
-68.5 162.861 -25.2467
-4.5 161.682 -26.8924
-68.5 169.405 -26.2783
-4.5 168.914 -27.7326
-68.5 172.261 -29.7963
-4.5 173.761 -27.2965
-68.5 178.263 -25.195
-4.5 179.457 -25.1166
-68.5 183.762 -26.8793
-4.5 183.216 -27.5237
-68.5 188.552 -29.4778
-4.5 187.696 -28.0241
-68.5 192.591 -26.3014
-4.5 192.518 -25.7131
-68.5 198.795 -25.2988
-68.5 204.007 -26.319
-4.5 202.022 -27.6727
-4.5 209.396 -26.7125
-68.5 214.953 -29.3271
-4.5 214.288 -29.5276
-74.0193 224.057 -28.5076
-68.5 221.089 -28.6336
-2.3419 222.242 -26.6337
3.19481 224.971 -26.1638
-76.284 228.951 -29.6062
3.60076 229.367 -25.2652
-76.2333 234.029 -26.5124
3.58566 234.034 -26.1865
-76.2425 239.138 -27.0731
-76.2121 243.533 -25.2204
3.57218 241.455 -27.0085
3.59181 246.764 -25.8113
-76.2626 252.579 -28.3011
3.58283 251.797 -26.3588
-76.2494 259.445 -27.4947
3.53409 255.153 -29.3321
3.57456 262.981 -26.8631
-76.2503 265.274 -27.5517
3.53877 268.469 -29.0463
-76.273 273.059 -28.9345
3.59007 271.602 -25.9172
3.57282 276.236 -26.9698
-76.2404 280.442 -26.9477
3.54351 283.005 -28.7578
-76.2517 286.393 -27.6392
3.60012 285.983 -25.3041
-76.2619 292.188 -28.2613
3.25325 293.06 -28.8222
-72.1127 298.546 -27.1901
-68.5 304.004 -27.775
-4.22903 300.695 -27.9745
-68.5 308.633 -29.1443
-4.5 308.095 -26.7801
-68.5 313.546 -28.7836
-4.5 313.959 -27.5079
-68.5 319.043 -27.9109
-4.5 319.369 -29.2475
-68.5 324.285 -29.9657
-4.5 324.189 -26.1895
-68.5 328.777 -25.5313
-4.5 328.613 -26.4653
-68.5 333.709 -28.3976
-5.89217 336.239 -25.9754
-65.0997 340.584 -29.8307
-9.60632 343.712 -26.216
-61.5211 347.301 -27.9771
-12.0256 348.58 -26.4641
-57.7846 354.314 -26.0931
-14.041 352.624 -28.7406
-54.9318 359.588 -28.6952
-16.4063 357.348 -28.1474
-52.8519 363.697 -28.4525
-18.6972 361.924 -27.602
-51.75 369.352 -25.2177
-20.5264 365.572 -25.8288
-21.25 373.723 -27.0137
-51.75 377.608 -27.6078
-21.25 379.401 -25.9083
-51.75 383.635 -26.2573
-51.75 388.421 -26.8158
-21.25 386.987 -26.2805
-21.25 394.302 -26.6148
-51.75 396.966 -26.2064
-51.75 404.068 -26.6528
-21.25 401.659 -26.4775
-51.1767 407.826 -29.1146
-21.4543 407.206 -25.7341
-50.4578 412.13 -28.2809
-22.114 412.801 -25.0911
-22.8104 418.707 -28.452
-49.053 420.554 -26.9382
-32.2425 423.986 -25.2547
-23.0953 423.457 -25.1573
-48.0117 426.395 -25.6982
-41.604 426.018 -25.6288
-36.2441 425.738 -25.5773
-32.3503 428.638 -26.111
-27.8916 425.697 -25.5697
-23.8999 427.948 -25.9764
-47.8535 430.768 -26.5033
-43.1828 431.336 -26.6079
-37.5009 431.655 -26.6665
-30.0814 432.788 -26.8751
-25.2259 432.832 -26.8833
-47.4032 436.789 -27.6118
-41.3556 435.753 -27.421
-37.3041 437.378 -27.7202
-32.5379 436.436 -27.5469
-28.1328 437.217 -27.6906
-43.672 440.099 -28.2211
-39.6682 441.974 -28.5663
-34.6046 441.151 -28.4149
-27.582 442.962 -28.7237
-45.1077 447.209 -29.5302
-36.3768 448.133 -29.7004
-31.3405 446.668 -29.4306
-26.3476 448.708 -29.7771
-68.5 26.6994 -21.3743
-4.5 26.6668 -24.7325
-68.5 31.11 -22.8516
-4.5 33.3073 -22.0829
-68.5 37.0847 -20.8873
-4.5 39.0169 -23.0782
-68.5 41.8349 -20.1218
-68.5 46.1496 -21.6422
-4.5 45.3448 -22.7822
-68.5 50.4329 -24.4415
-4.5 51.2664 -22.9212
-68.5 56.9968 -22.5878
-4.5 57.6886 -22.9203
-68.5 62.4523 -22.9162
-4.5 63.2615 -20.085
-68.5 66.8463 -22.5055
-4.5 67.3563 -23.1127
-68.5 72.9492 -20.8727
-4.5 71.8659 -22.6422
-68.5 77.1279 -22.2864
-4.5 76.0334 -20.9079
-68.5 81.8673 -21.4812
-4.5 80.6897 -22.488
-68.5 86.36 -22.8502
-4.5 88.0352 -22.9389
-68.5 91.1828 -22.994
-4.5 92.3966 -21.9252
-68.5 96.4582 -22.2437
-4.5 99.4456 -20.9833
-68.5 101.065 -21.4338
-4.5 103.983 -21.8225
-68.5 107.864 -24
-4.5 111.578 -21.0051
-68.5 116.552 -22.3447
-4.5 116.973 -22.076
-68.5 120.985 -22.2735
-4.5 122.917 -22.7171
-68.5 128.171 -22.4472
-4.5 128.115 -22.5246
-68.5 134.951 -21.4854
-4.5 132.072 -20.5209
-4.5 137.756 -24.2195
-68.5 140.953 -23.1873
-68.5 148.124 -21.2678
-4.5 147.947 -22.8867
-4.5 153.661 -22.1047
-68.5 157.073 -23.7492
-4.5 156.884 -24.2931
-4.5 163.41 -22.2183
-68.5 166.85 -20.3704
-4.5 168.483 -22.847
-68.5 173.618 -21.1194
-68.5 178.222 -20.3485
-4.5 176.373 -21.4589
-68.5 182.637 -21.8477
-4.5 182.732 -21.4375
-68.5 187.019 -21.384
-4.5 187.835 -23.1868
-68.5 194.64 -22.675
-4.5 191.75 -20.7417
-68.5 199.467 -20.1934
-4.5 197.404 -22.3816
-68.5 204.091 -21.2092
-68.5 207.831 -24.1534
-4.5 206.855 -21.9838
-68.5 212.383 -23.4604
-4.5 212.664 -21.8848
-68.5 216.851 -22.6547
-4.5 217.934 -21.6867
-71.9418 223.021 -21.9703
-0.0472318 223.338 -22.9154
-76.2007 229.885 -24.5236
3.65742 226.103 -21.8088
3.67884 231.143 -20.502
-76.1479 235.305 -21.3047
3.65946 239.227 -21.6844
-76.1517 240.675 -21.5327
3.64392 243.57 -22.6327
3.6682 248.039 -21.1511
-76.1864 251.23 -23.6528
3.6555 254.784 -21.9259
-76.1645 255.416 -22.3183
3.64503 259.221 -22.5649
-76.1557 261.783 -21.7782
-76.1739 268.093 -22.892
3.6601 267.293 -21.6454
-76.15 273.587 -21.4347
-76.1729 277.74 -22.8268
3.68351 275.624 -20.2178
3.65171 280.453 -22.1572
-76.1694 285.564 -22.6183
3.68675 286.52 -20.0199
-76.1335 292.439 -22.1878
3.49474 292.723 -22.3403
-73.1116 297.418 -22.6768
-1.72927 298.681 -24.8271
-69.2659 301.067 -22.3122
-4.5 300.979 -22.0713
-68.5 306.7 -21.7365
-4.5 305.536 -22.796
-68.5 313.05 -22.3765
-4.5 312.996 -23.2309
-68.5 318.06 -23.0053
-4.5 317.597 -23.0375
-68.5 322.439 -22.7685
-4.5 324.042 -21.3048
-68.5 327.01 -21.2183
-4.5 329.422 -21.3068
-68.5 331.374 -21.6611
-67.2962 336.625 -22.6856
-6.68568 337.836 -21.8843
-65.2116 340.483 -24.4
-62.4734 345.619 -23.1637
-10.9115 346.33 -20.4662
-59.3052 351.57 -21.3023
-13.7765 352.074 -24.2682
-56.248 357.243 -23.0207
-15.735 355.982 -22.8393
-53.0096 363.998 -22.0429
-43.1808 363.833 -20.4205
-27.8234 364.81 -20.7236
-17.7518 360.016 -23.6002
