ply
format ascii 1.0
comment Generated by Slim Ghodhbane
element vertex 1454
property double x
property double y
property double z
end_header
-4.69145 -4.19855 0.466535
-4.42736 -4.18393 0.474346
4.42738 -4.18393 0.474346
4.69148 -4.19855 0.466535
-4.69263 -3.77472 0.469845
-4.42525 -3.78172 0.476606
4.42527 -3.78172 0.476606
4.69266 -3.77472 0.469845
-4.7438 -3.41613 0.451574
-4.37714 -3.41613 0.463673
4.37715 -3.41613 0.463673
4.74382 -3.41613 0.451574
-4.66575 -2.85948 0.492248
-4.4599 -2.85948 0.499008
4.45992 -2.85948 0.499008
4.66578 -2.85948 0.492248
-0.001276 -9.57802 0.978932
0.0022468 -9.57746 0.977477
-5.13563 -4.29337 0.801662
-4.80465 -4.32562 0.581703
-4.22284 -4.3218 0.679439
-3.96363 -4.22718 0.862102
3.96365 -4.22718 0.862102
4.22287 -4.32181 0.679439
4.80468 -4.32562 0.581704
5.13565 -4.29336 0.801662
-5.11868 -3.83529 0.824803
-4.72957 -3.86328 0.751383
-4.25877 -3.84923 0.746646
-3.9623 -3.82761 0.901892
-1.00328 -3.91584 0.939265
-0.668853 -3.91584 0.939265
-0.334426 -3.91584 0.939265
0.167213 -3.91584 0.939265
0.668853 -3.91584 0.939265
1.00328 -3.91584 0.939265
3.96232 -3.82761 0.901892
4.2588 -3.84923 0.746646
4.72959 -3.86328 0.751383
5.1187 -3.83529 0.824803
-5.17172 -3.41613 0.717368
-4.11635 -3.41613 0.603074
-3.92875 -3.41613 0.831661
3.92877 -3.41613 0.831661
4.11637 -3.41613 0.603074
5.17175 -3.41613 0.717368
-5.17452 -2.85948 0.803117
-4.92713 -2.85948 0.571542
-4.16157 -2.85948 0.658176
-3.94725 -2.85948 0.919729
3.94729 -2.85948 0.919729
4.16159 -2.85948 0.658176
4.92715 -2.85948 0.571542
5.17454 -2.85948 0.803117
-5.09082 -2.34008 0.869352
-4.74255 -2.32909 0.742965
-4.25945 -2.31818 0.775565
4.25947 -2.31818 0.775565
4.74258 -2.32909 0.742965
5.09084 -2.34008 0.869352
-4.70661 -1.69853 0.884893
-4.35994 -1.69547 0.89989
4.35996 -1.69547 0.89989
4.70663 -1.69853 0.884893
-9.61699 -1.21913 0.965268
-9.29741 -1.25157 0.948504
-4.64578 -1.47384 0.932707
-4.41876 -1.47786 0.921967
4.41879 -1.47786 0.921967
4.64581 -1.47384 0.932707
9.29743 -1.25157 0.948504
9.61701 -1.21913 0.965268
-9.61929 -0.766192 0.970413
-9.2968 -0.804017 0.958333
9.29683 -0.804017 0.958333
9.61932 -0.766192 0.970413
-9.63292 -0.416131 0.939116
-9.26863 -0.416131 0.902949
9.26866 -0.416131 0.902949
9.63295 -0.416131 0.939116
-9.61068 0.140528 0.992803
-9.27419 0.140528 0.959402
-1.10059 0 0.939265
-0.668853 0 0.939265
-0.270517 0.188505 0.937343
0.135532 0.188505 0.937343
0.668853 0 0.939265
1.10059 0 0.939265
9.27422 0.140528 0.959402
9.61071 0.140528 0.992803
-0.206608 1.02441 0.935422
0.103851 1.02441 0.935422
-1.1358 2.43227 0.939267
-0.668853 2.43227 0.939267
-0.334426 2.43227 0.939267
0.167213 2.43227 0.939267
0.668853 2.43227 0.939267
1.1358 2.43227 0.939267
-0.268689 -15.6786 1.42932
0.161213 -15.7085 1.41957
-0.655747 -15.0796 1.47055
-0.34098 -15.0796 1.32081
0.22732 -15.0796 1.30112
0.655747 -15.0796 1.47055
-0.69394 -14.7163 1.42761
-0.255381 -14.7648 1.25027
0.170272 -14.765 1.23978
0.69394 -14.7163 1.42761
-0.719158 -14.3602 1.40429
-0.302451 -14.3247 1.22265
0.201648 -14.3249 1.20878
0.719158 -14.3602 1.40429
-0.633693 -13.7595 1.31518
-0.263525 -13.7595 1.17589
0.131763 -13.7595 1.16292
0.633693 -13.7595 1.31518
-0.633693 -13.3093 1.31518
-0.263525 -13.3093 1.17589
0.131763 -13.3093 1.16292
0.633693 -13.3093 1.31518
-0.633693 -12.8591 1.31518
-0.263525 -12.8591 1.17589
0.131763 -12.8591 1.16292
0.633693 -12.8591 1.31518
-0.633693 -12.4089 1.31518
-0.263525 -12.4089 1.17589
0.131763 -12.4089 1.16292
0.633693 -12.4089 1.31518
-0.633693 -11.9587 1.31518
-0.263525 -11.9587 1.17589
0.131763 -11.9587 1.16292
0.633693 -11.9587 1.31518
-0.633693 -11.4708 1.31518
-0.263525 -11.4708 1.17589
0.131763 -11.4708 1.16292
0.633693 -11.4708 1.31518
-0.633693 -10.5703 1.31518
-0.263525 -10.5703 1.1759
0.131763 -10.5703 1.16292
0.633693 -10.5703 1.31518
-0.633693 -9.6412 1.31518
-0.0886923 -9.68314 1.21281
0.0238328 -9.69438 1.22109
0.633693 -9.6412 1.31518
-0.637721 -5.69754 1.3077
-0.264937 -5.72262 1.17119
0.132469 -5.71213 1.15847
0.637721 -5.69754 1.3077
-5.22864 -4.32605 1.25321
-4.61609 -4.08205 1.1758
-4.29009 -4.19066 1.2257
-3.92524 -4.28936 1.23052
-0.633693 -4.03506 1.31518
-0.263525 -4.03506 1.1759
0.131763 -4.03506 1.16292
0.633693 -4.03506 1.31518
3.92527 -4.28936 1.23052
4.29012 -4.19066 1.2257
4.61612 -4.08205 1.17579
5.22866 -4.32605 1.25321
-5.19279 -3.84444 1.24955
-4.66906 -3.87203 1.1994
-4.32489 -3.86311 1.23096
-3.94032 -3.8352 1.21749
-1.24785 -3.81539 1.30974
1.24786 -3.81539 1.30974
3.94034 -3.8352 1.21749
4.32491 -3.86311 1.23095
4.66909 -3.87203 1.1994
5.19282 -3.84444 1.24955
-5.33687 -3.41613 1.26177
-3.8574 -3.41613 1.26177
-1.12528 -3.24725 1.38381
1.1253 -3.24725 1.38381
3.85743 -3.41613 1.26177
5.33689 -3.41613 1.26177
-5.28042 -2.85948 1.25622
-4.72421 -2.6836 1.41647
-4.46912 -2.6836 1.41175
-3.91386 -2.85948 1.25622
-1.69404 -2.54083 1.49702
-1.35139 -2.79018 1.40408
1.35142 -2.79018 1.40408
1.69407 -2.54083 1.49702
3.91388 -2.85948 1.25622
4.46915 -2.6836 1.41175
4.72424 -2.6836 1.41647
5.28044 -2.85948 1.25622
-5.13826 -2.29711 1.24252
-4.74067 -2.43575 1.30227
-4.21673 -2.33636 1.25586
-3.97552 -2.39265 1.18738
-1.7255 -2.06446 1.47824
-1.29486 -2.25203 1.34566
1.29489 -2.25203 1.34566
1.72552 -2.06446 1.47824
3.97555 -2.39265 1.18738
4.21675 -2.33636 1.25586
4.74069 -2.43575 1.30227
5.13828 -2.29711 1.24252
-4.73063 -1.69898 1.23806
-4.31684 -1.70085 1.24056
-1.7255 -1.56774 1.47791
-1.29486 -1.71616 1.34529
1.29489 -1.71616 1.34529
1.72552 -1.56774 1.47791
4.31687 -1.70085 1.24056
4.73066 -1.69898 1.23806
-10.0343 -1.21913 1.43059
-9.80004 -1.31758 1.19772
-9.23098 -1.29229 1.13698
-8.8049 -1.29538 1.26091
-4.71484 -1.41384 1.23256
-4.40037 -1.44112 1.21561
-1.7255 -1.05118 1.4711
-1.29486 -1.15887 1.33749
1.29489 -1.15887 1.33749
1.72552 -1.05118 1.4711
4.40039 -1.44112 1.21561
4.71486 -1.41384 1.23256
8.80492 -1.29538 1.26091
9.23101 -1.29229 1.13698
9.80007 -1.31758 1.19772
10.0343 -1.21913 1.43059
-10.0473 -0.816526 1.42621
-9.74443 -0.836116 1.26162
-9.26985 -0.846634 1.30775
-8.83348 -0.827742 1.28298
-4.59713 -0.70331 1.18891
-1.82938 -0.812065 1.49674
-1.36606 -0.812065 1.35628
1.36607 -0.812065 1.35628
1.8294 -0.812065 1.49674
4.59716 -0.70331 1.18891
8.8335 -0.827742 1.28298
9.26987 -0.846634 1.30775
9.74446 -0.836116 1.26162
10.0473 -0.816526 1.42621
-10.0667 -0.416131 1.42268
-9.87308 -0.416131 1.11109
-8.73244 -0.416131 1.23573
-1.29486 -0.279183 1.39198
1.29489 -0.279183 1.39198
8.73246 -0.416131 1.23573
9.87311 -0.416131 1.11109
10.0668 -0.416131 1.42268
-9.87222 0.140528 1.20712
-8.81075 0.140528 1.20712
-1.39357 0.04919 1.29841
-0.633693 0 1.31518
-0.263525 0 1.1759
0.131763 0 1.16292
0.633693 0 1.31518
1.39358 0.04919 1.29841
8.81078 0.140528 1.20712
9.87225 0.140528 1.20712
-9.71896 0.686904 1.26462
-9.26436 0.657784 1.19385
-8.88237 0.677636 1.30598
-1.17643 0.717034 1.45757
1.17645 0.717034 1.45757
8.88239 0.677636 1.30598
9.26438 0.657784 1.19385
9.71898 0.686904 1.26462
-9.62602 1.30382 1.39667
-9.26856 1.3002 1.35095
-8.9799 1.30057 1.49291
-1.74793 1.41406 1.4067
1.74795 1.41406 1.4067
8.97994 1.30057 1.49291
9.26859 1.3002 1.35095
9.62604 1.30382 1.39667
-9.56852 1.52214 1.41566
-9.31053 1.55113 1.42627
-3.67509 1.84308 1.3849
-1.76339 1.55494 1.3256
1.76342 1.55494 1.3256
3.67512 1.84308 1.3849
9.31056 1.55114 1.42627
9.56854 1.52214 1.41566
-3.67399 2.07835 1.33761
-1.44166 2.43227 1.21405
1.44166 2.43227 1.21405
3.67401 2.07835 1.33761
-5.34417 2.51379 1.47602
-0.633693 2.75104 1.31518
-0.263525 2.75104 1.1759
0.131763 2.75104 1.16292
0.633693 2.75104 1.31518
5.3442 2.51379 1.47602
-0.521093 4.48621 1.24417
-0.264823 4.30294 1.17157
0.132411 4.2468 1.15883
0.521093 4.48621 1.24417
-0.676136 4.75272 1.33198
-0.263525 4.89073 1.1759
0.131763 4.89073 1.16293
0.676136 4.75272 1.33198
-0.633693 6.79067 1.31518
-0.263525 6.79067 1.1759
0.131763 6.79067 1.16293
0.633693 6.79067 1.31518
-0.627338 8.82132 1.37353
-0.26089 8.82132 1.23746
0.130445 8.82132 1.22477
0.627338 8.82132 1.37353
-0.234793 10.6586 1.46792
0.117397 10.6586 1.45636
-0.165304 -17.1704 1.92405
0.110202 -17.1896 1.92321
-0.522807 -16.5908 1.87817
-0.292458 -16.713 1.77293
0.227467 -16.7096 1.75236
0.522807 -16.5908 1.87817
-0.633634 -16.3579 1.90402
-0.311168 -16.3579 1.64896
0.233376 -16.3579 1.62898
0.633634 -16.3579 1.90402
-0.851384 -15.7292 1.89648
-0.362015 -15.9781 1.54073
0.362015 -15.9781 1.54073
0.851384 -15.7292 1.89648
-0.907995 -15.0796 1.71851
0.907995 -15.0796 1.71851
-1.03856 -14.7163 1.78369
-0.883215 -14.7163 1.58812
0.883215 -14.7163 1.58812
1.03856 -14.7163 1.78369
-1.13612 -14.3602 1.8821
-0.915327 -14.3602 1.56828
0.915327 -14.3602 1.56828
1.13612 -14.3602 1.8821
-1.18555 -13.7595 1.86704
-0.955145 -13.7595 1.54558
0.955145 -13.7595 1.54558
1.18555 -13.7595 1.86704
-1.18555 -13.3093 1.86704
-0.955145 -13.3093 1.54558
0.955145 -13.3093 1.54558
1.18555 -13.3093 1.86704
-1.18555 -12.8591 1.86704
-0.955145 -12.8591 1.54558
0.955145 -12.8591 1.54558
1.18555 -12.8591 1.86704
-1.18555 -12.4089 1.86704
-0.955145 -12.4089 1.54558
0.955145 -12.4089 1.54558
1.18555 -12.4089 1.86704
-1.18555 -11.9587 1.86704
-0.955145 -11.9587 1.54558
0.955145 -11.9587 1.54558
1.18555 -11.9587 1.86704
-1.18555 -11.4708 1.86704
-0.955145 -11.4708 1.54558
0.955145 -11.4708 1.54558
1.18555 -11.4708 1.86704
-1.18555 -10.5703 1.86704
-0.955145 -10.5703 1.54558
0.955145 -10.5703 1.54558
1.18555 -10.5703 1.86704
-1.18555 -9.6412 1.86704
-0.955145 -9.6412 1.54558
0.955145 -9.6412 1.54558
1.18555 -9.6412 1.86704
-1.18555 -5.71252 1.86704
-0.955145 -5.62519 1.54558
0.955145 -5.62519 1.54558
1.18555 -5.71252 1.86704
-1.12932 -5.26823 1.73947
-0.967373 -5.47327 1.52878
0.967373 -5.47327 1.52878
1.12932 -5.26823 1.73947
-1.15071 -4.84212 1.84208
1.15073 -4.84212 1.84208
-5.10349 -4.31033 1.61609
-4.77853 -4.35137 1.78802
-4.27063 -4.34485 1.72164
-3.98953 -4.21691 1.58343
-1.32915 -4.03741 1.79325
-0.955145 -4.03506 1.54558
0.955145 -4.03506 1.54558
1.32916 -4.03741 1.79325
3.98955 -4.21691 1.58343
4.27066 -4.34484 1.72164
4.77856 -4.35137 1.78802
5.10352 -4.31033 1.61609
-5.10612 -3.83021 1.61665
-4.72268 -3.79954 1.74269
-4.28343 -3.84183 1.68796
-3.97488 -3.76156 1.60469
-1.73896 -3.6551 1.74741
-1.31008 -3.78113 1.66843
1.3101 -3.78113 1.66843
1.73898 -3.6551 1.74741
3.9749 -3.76156 1.60469
4.28346 -3.84183 1.68796
4.7227 -3.79954 1.74269
5.10615 -3.83021 1.61665
-5.12873 -3.41613 1.7205
-4.67975 -3.35348 1.92268
-4.37137 -3.2806 1.87663
-3.96394 -3.41613 1.61199
-2.69753 -3.03053 1.89035
-2.22651 -3.29827 1.8306
-1.72851 -3.32923 1.59297
-1.46445 -3.22904 1.5203
1.46448 -3.22904 1.5203
1.72854 -3.32923 1.59297
2.22654 -3.29827 1.8306
2.69755 -3.03053 1.89035
3.96395 -3.41613 1.61199
4.37139 -3.2806 1.87663
4.67977 -3.35348 1.92268
5.12875 -3.41613 1.72051
-5.13827 -2.85948 1.63301
-4.77405 -2.80086 1.85793
-4.29059 -2.80923 1.78876
-2.69753 -2.76349 1.7859
-2.22651 -2.78768 1.66056
-1.72519 -2.81676 1.54801
1.72521 -2.81676 1.54801
2.22654 -2.78768 1.66056
2.69755 -2.76349 1.7859
4.29061 -2.80923 1.78876
4.77407 -2.80086 1.85793
5.13829 -2.85948 1.63301
-5.06714 -2.37419 1.57361
-4.76089 -2.28606 1.72049
-4.31166 -2.2874 1.70406
-3.63955 -2.17259 1.9493
-2.69753 -2.17989 1.71018
-2.22651 -2.25284 1.60414
2.22654 -2.25284 1.60414
2.69755 -2.17989 1.71018
3.63959 -2.17259 1.9493
4.31168 -2.2874 1.70406
4.76092 -2.28606 1.72049
5.06716 -2.37419 1.57361
-4.65419 -1.73853 1.54704
-4.38286 -1.75391 1.73373
-3.8489 -1.77627 1.94901
-2.69753 -1.59079 1.67019
-2.22651 -1.82017 1.57809
2.22654 -1.82017 1.57809
2.69755 -1.59079 1.67019
3.84892 -1.77627 1.94901
4.38289 -1.75391 1.73373
4.65421 -1.73853 1.54704
-10.0413 -1.25456 1.74602
-9.92287 -1.3647 1.7665
-9.33649 -1.0638 1.64114
-8.72459 -1.33165 1.76036
-4.59713 -1.47786 1.50997
-4.26758 -1.15885 1.99393
-3.74422 -1.31821 1.88745
-2.69753 -1.14634 1.66991
-2.22651 -1.3507 1.5778
2.22654 -1.3507 1.5778
2.69755 -1.14634 1.66991
3.74425 -1.31821 1.88745
4.26759 -1.15885 1.99393
4.59717 -1.47786 1.50997
8.72462 -1.33165 1.76036
9.33652 -1.0638 1.64114
9.92289 -1.3647 1.7665
10.0413 -1.25455 1.74602
-10.0533 -0.750517 1.71317
-9.74155 -0.839358 1.73648
-9.31201 -0.856072 1.68938
-8.80009 -0.829492 1.7434
-4.26758 -0.826166 1.97718
-3.8489 -0.772735 1.89517
-2.69753 -0.684164 1.66419
-2.22651 -0.862454 1.57155
2.22654 -0.862454 1.57155
2.69755 -0.684164 1.66419
3.84892 -0.772735 1.89517
4.26759 -0.826166 1.97718
8.80011 -0.829491 1.7434
9.31204 -0.856071 1.68938
9.74157 -0.839358 1.73648
10.0534 -0.750517 1.71317
-10.0788 -0.416132 1.78935
-8.60415 -0.416132 1.78935
-4.60686 -0.279614 1.51979
-4.26758 -0.277502 1.97497
-3.79656 -0.268115 1.88033
-2.62127 -0.116312 1.62888
-2.22651 -0.091763 1.61518
-1.7255 -0.235754 1.51868
1.72552 -0.235754 1.51868
2.22654 -0.091763 1.61518
2.6213 -0.116312 1.62888
3.79658 -0.268115 1.88033
4.26759 -0.277502 1.97497
4.60688 -0.279614 1.51979
8.60417 -0.416132 1.78935
10.0789 -0.416132 1.78935
-10.0359 0.140528 1.64268
-9.99137 0.140527 1.91188
-9.38354 0.316415 1.86866
-8.65821 0.140527 1.70998
-3.67638 0.202273 1.94009
-2.6613 0.238062 1.75429
-1.83117 0.14757 1.56896
-1.25408 0 1.84143
-0.955145 0 1.54559
0.955145 0 1.54559
1.25408 0 1.84143
1.8312 0.14757 1.56896
2.66133 0.238062 1.75429
3.6764 0.202273 1.94009
8.65824 0.140527 1.70998
9.38356 0.316415 1.86866
9.99139 0.140527 1.91188
10.0359 0.140528 1.64268
-9.79436 0.654817 1.7354
-9.24118 0.576864 1.78459
-8.80612 0.693654 1.74855
-4.5987 0.638928 1.99224
-3.67961 0.869473 1.91532
-2.69753 0.797947 1.81454
-2.22651 0.73881 1.73695
-1.71726 0.774794 1.75677
-1.35139 0.736761 1.79943
1.35142 0.736761 1.79943
1.71728 0.774794 1.75677
2.22654 0.73881 1.73695
2.69755 0.797947 1.81454
3.67964 0.869473 1.91532
4.59872 0.638928 1.99224
8.80615 0.693654 1.74855
9.24121 0.576864 1.78459
9.79438 0.654818 1.7354
-9.63805 1.30098 1.736
-9.27736 1.29007 1.73969
-8.96634 1.30382 1.66991
-4.59213 1.20193 1.99445
-3.66009 1.43768 1.59579
-3.49606 1.49934 1.71794
-1.72248 1.32879 1.78831
-1.46445 1.45502 1.71999
1.46448 1.45502 1.71999
1.72251 1.32879 1.78831
3.49607 1.49934 1.71794
3.66011 1.43768 1.59579
4.59216 1.20193 1.99445
8.96638 1.30382 1.66991
9.27739 1.29007 1.73969
9.63808 1.30098 1.736
-9.57637 1.5459 1.68274
-9.27028 1.58228 1.73475
-5.32034 1.84829 1.86238
-4.62627 1.79991 1.7916
-3.67935 1.77348 1.77072
-1.72844 1.55728 1.78252
-1.25247 1.62216 1.68825
1.25249 1.62216 1.68825
1.72846 1.55728 1.78252
3.67938 1.77348 1.77072
4.62629 1.79991 1.7916
5.32037 1.84829 1.86238
9.27031 1.58228 1.73475
9.5764 1.5459 1.68274
-9.34149 2.2967 1.64268
-7.07292 2.39289 1.93596
-6.93686 2.40519 1.96566
-5.32808 2.27969 1.69007
-3.66826 2.21114 1.92372
-1.39114 2.43227 1.79019
1.39114 2.43227 1.79019
3.66828 2.21114 1.92372
5.32811 2.27969 1.69007
6.93688 2.40519 1.96566
7.07295 2.39289 1.93596
9.34151 2.2967 1.64268
-9.35122 2.72038 1.97355
-7.08408 2.85364 1.81762
-6.91262 2.81673 1.89985
-5.32341 2.55256 1.56478
-1.18555 2.75104 1.86705
-0.955145 2.75104 1.54559
0.955145 2.75104 1.54559
1.18555 2.75104 1.86705
5.32344 2.55256 1.56478
6.91264 2.81673 1.89985
7.08411 2.85364 1.81762
9.35124 2.72038 1.97355
-8.75765 3.3806 1.97103
-7.04544 3.12475 1.74463
-6.97793 3.09707 1.80337
6.97795 3.09708 1.80337
7.04547 3.12475 1.74463
8.75768 3.3806 1.97103
-8.69852 3.80532 1.90476
-1.25224 3.99736 1.97802
1.25224 3.99736 1.97802
8.69855 3.80532 1.90476
-1.24975 4.02539 1.98138
1.24975 4.02539 1.98138
-1.15211 4.78165 1.79252
-0.961176 4.89166 1.53926
0.961176 4.89166 1.53926
1.15211 4.78165 1.79252
-1.18555 6.79067 1.86705
-0.955145 6.79067 1.54559
0.955145 6.79067 1.54559
1.18555 6.79067 1.86705
-1.11189 8.82132 1.79867
-0.945584 8.82132 1.59866
0.945584 8.82132 1.59866
1.11189 8.82132 1.79867
-1.00065 10.6586 1.97965
-0.759787 10.6586 1.72246
-0.460539 10.6586 1.53641
0.460539 10.6586 1.53641
0.759787 10.6586 1.72246
1.00065 10.6586 1.97965
-0.287767 12.3346 1.90704
0.191844 12.3346 1.89121
-0.115252 -17.6127 2.33355
0.102027 -17.6145 2.32938
-0.519598 -17.1125 2.34943
-0.351408 -17.286 2.19254
0.351408 -17.286 2.19254
0.519598 -17.1125 2.34943
-0.652907 -16.6977 2.22459
0.652907 -16.6977 2.22459
-0.797489 -16.3579 2.30267
0.797489 -16.3579 2.30267
-1.01156 -15.6964 2.15775
-0.960375 -15.7349 2.13382
0.960375 -15.7349 2.13382
1.01156 -15.6964 2.15775
-1.12405 -15.0796 2.14281
1.12405 -15.0796 2.14281
-1.18951 -14.7163 2.12789
1.18951 -14.7163 2.12789
-1.26959 -14.3602 2.24346
1.26959 -14.3602 2.24346
-1.32483 -13.7595 2.2372
1.32483 -13.7595 2.2372
-1.32483 -13.3093 2.2372
1.32483 -13.3093 2.2372
-1.32483 -12.8591 2.2372
1.32483 -12.8591 2.2372
-1.32483 -12.4089 2.2372
1.32483 -12.4089 2.2372
-1.32483 -11.9587 2.2372
1.32483 -11.9587 2.2372
-1.32483 -11.4708 2.2372
1.32483 -11.4708 2.2372
-1.32483 -10.5703 2.2372
1.32483 -10.5703 2.2372
-1.32483 -9.6412 2.2372
1.32483 -9.6412 2.2372
-1.32483 -5.71252 2.2372
1.32483 -5.71252 2.2372
-1.32251 -4.35873 2.2266
1.32251 -4.35873 2.2266
-1.27745 -3.78675 2.12432
1.27746 -3.78675 2.12432
-4.60401 -3.26333 2.03038
-2.69753 -3.02618 2.02049
-2.22651 -3.19776 2.05171
-1.75807 -3.30236 2.06722
-1.29486 -3.21352 2.10343
1.29489 -3.21352 2.10343
1.75809 -3.30236 2.06722
2.22654 -3.19776 2.05171
2.69755 -3.02618 2.02049
4.60403 -3.26333 2.03038
-4.62616 -2.6836 2.06033
-4.47845 -2.6836 2.01388
-2.69753 -2.7631 2.15125
-2.22651 -2.76413 2.18363
-1.71763 -2.7999 2.18294
-1.35139 -2.75497 2.17836
1.35142 -2.75497 2.17836
1.71766 -2.7999 2.18294
2.22654 -2.76413 2.18363
2.69755 -2.7631 2.15125
4.47846 -2.6836 2.01388
4.62618 -2.6836 2.06033
-4.62588 -2.19633 2.12597
-4.36328 -2.08512 2.07075
-3.79656 -2.2329 2.13239
-2.69753 -2.33752 2.25389
-2.22651 -2.21678 2.25638
-1.73179 -2.24098 2.22733
-1.29486 -2.27422 2.20991
1.29489 -2.27422 2.20991
1.73182 -2.24098 2.22733
2.22654 -2.21678 2.25638
2.69755 -2.33752 2.25389
3.79659 -2.2329 2.13239
4.3633 -2.08512 2.07075
4.6259 -2.19633 2.12597
-4.74 -1.69284 2.18986
-4.36753 -1.79989 2.16042
-3.8489 -1.75718 2.3366
-2.69753 -1.78772 2.29881
-2.22651 -1.83962 2.26999
-1.7255 -1.56774 2.22187
-1.29486 -1.71616 2.19735
1.29489 -1.71616 2.19735
1.72552 -1.56774 2.22187
2.22654 -1.83962 2.26999
2.69755 -1.78772 2.29881
3.84893 -1.75718 2.3366
4.36755 -1.79989 2.16042
4.74003 -1.69284 2.18986
-9.73179 -1.33221 2.15119
-9.25979 -1.35034 2.25609
-8.87688 -1.31506 2.11658
-5.52717 -1.13641 2.30441
-5.25419 -1.24206 2.28491
-4.77933 -1.26434 2.21532
-4.35979 -1.25618 2.1946
-3.74422 -1.30388 2.37639
-2.69753 -1.14634 2.29583
-2.22651 -1.3507 2.25994
-1.7255 -1.05118 2.20629
-1.29486 -1.15887 2.17951
1.29489 -1.15887 2.17951
1.72552 -1.05118 2.20629
2.22654 -1.3507 2.25994
2.69755 -1.14634 2.29583
3.74426 -1.30388 2.37639
4.35981 -1.25618 2.1946
4.77935 -1.26434 2.21533
5.25421 -1.24206 2.28491
5.52719 -1.13641 2.30441
8.87691 -1.31506 2.11658
9.25981 -1.35034 2.25609
9.73181 -1.33221 2.15119
-9.70118 -0.829445 2.1444
-9.26923 -0.771991 2.24244
-8.88359 -0.814697 2.12384
-6.34613 -0.611535 2.38359
-5.52717 -0.79207 2.33067
-5.25419 -0.716562 2.30833
-4.71216 -0.782255 2.25651
-4.26758 -0.841129 2.42194
-3.8489 -0.777949 2.38591
-2.69753 -0.684164 2.28274
-2.22651 -0.862454 2.24566
2.22654 -0.862454 2.24566
2.69755 -0.684164 2.28274
3.84893 -0.777949 2.38591
4.26759 -0.841129 2.42194
4.71218 -0.782255 2.25651
5.25421 -0.716562 2.30833
5.52719 -0.79207 2.33067
6.34617 -0.611535 2.38359
8.88362 -0.814697 2.12384
9.26926 -0.771991 2.24244
9.70121 -0.829444 2.1444
-9.75177 -0.34939 2.23045
-9.33892 -0.3182 2.40159
-8.8099 -0.416133 2.17427
-7.16511 -0.0911117 2.41923
-6.34613 -0.295562 2.27068
-5.52717 -0.285149 2.1469
-5.25419 -0.291694 2.11048
-4.74744 -0.284743 2.22601
-4.38898 -0.27877 2.23223
-3.79656 -0.268115 2.36922
-2.22651 -0.091763 2.18367
-1.7255 -0.235749 2.13868
-1.29486 -0.279167 2.10207
1.29489 -0.279167 2.10207
1.72552 -0.235749 2.13868
2.22654 -0.091763 2.18367
3.79659 -0.268115 2.36922
4.389 -0.27877 2.23223
4.74747 -0.284743 2.22602
5.25421 -0.291694 2.11048
5.52719 -0.285149 2.1469
6.34617 -0.295562 2.27068
7.16512 -0.0911117 2.41923
8.80993 -0.416133 2.17427
9.33895 -0.3182 2.40159
9.7518 -0.34939 2.23045
-9.77705 0.140527 2.17342
-9.31426 0.24606 2.35819
-8.85047 0.140527 2.1337
-7.98407 0.456396 2.48442
-7.16511 0.209043 2.35591
-6.34613 0.188381 2.23409
-5.52717 0.185034 2.13949
-5.25419 0.207361 2.3
-4.757 0.120091 2.24962
-3.70781 0.227701 2.09693
-2.69753 0.04545 2.22585
-1.32655 0 2.22558
1.32655 0 2.22558
2.69755 0.04545 2.22585
3.70784 0.227701 2.09693
4.75702 0.120091 2.24962
5.25421 0.207361 2.3
5.52719 0.185034 2.13949
6.34617 0.188381 2.23409
7.16512 0.209043 2.35591
7.98408 0.456396 2.48442
8.85049 0.140527 2.1337
9.31428 0.24606 2.35819
9.77708 0.140527 2.17342
-9.65061 0.687674 2.11675
-9.26873 0.716346 2.21154
-8.9473 0.650938 2.09376
-7.98407 0.713632 2.44114
-7.16511 0.66191 2.32128
-6.34613 0.787467 2.22542
-5.52717 0.519758 2.13603
-5.25419 0.901922 2.29192
-4.63247 0.655166 2.14115
-4.26758 0.657469 2.13384
-3.72019 0.878732 2.03263
-2.69753 0.953426 2.10584
-2.22651 0.894057 2.04807
-1.75057 0.72894 2.0016
1.7506 0.72894 2.0016
2.22654 0.894057 2.04807
2.69755 0.953426 2.10584
3.72022 0.878732 2.03263
4.26759 0.657469 2.13384
4.63249 0.655166 2.14115
5.25421 0.901922 2.29192
5.52719 0.519758 2.13603
6.34617 0.787467 2.22542
7.16512 0.66191 2.32128
7.98408 0.713632 2.44114
8.94732 0.650938 2.09375
9.26875 0.716346 2.21154
9.65064 0.687674 2.11675
-9.34142 1.2713 2.07456
-7.98407 1.13545 2.40846
-7.16511 1.22255 2.31308
-6.34613 1.40147 2.24517
-5.52718 1.28985 2.25237
-5.31082 1.24757 2.18514
-4.60584 1.14486 2.17943
-4.26758 1.07791 2.19234
-3.79656 1.09196 2.24065
3.79659 1.09196 2.24065
4.26759 1.07791 2.19234
4.60586 1.14486 2.17943
5.31084 1.24757 2.18514
5.52719 1.28985 2.25237
6.34617 1.40147 2.24517
7.16512 1.22255 2.31308
7.98408 1.13545 2.40846
9.34144 1.2713 2.07456
-8.80302 1.84361 2.48983
-7.98407 1.65762 2.40072
-7.11142 1.88078 2.3365
-6.91001 1.88155 2.32567
-6.34613 1.7893 2.33921
-5.52717 1.57791 2.42325
-5.34167 1.90109 2.15007
-4.59627 1.79774 2.20389
-3.66655 1.76116 2.03489
3.66658 1.76116 2.03489
4.5963 1.79774 2.20389
5.34169 1.90109 2.15007
5.52719 1.57791 2.42325
6.34617 1.7893 2.33921
6.91004 1.88155 2.32567
7.11144 1.88078 2.3365
7.98408 1.65762 2.40072
8.80306 1.84361 2.48983
-8.77143 2.0363 2.48403
-7.98407 2.35625 2.43258
-7.14299 2.36444 2.2959
-6.88202 2.47073 2.22844
-5.3286 2.30592 2.16414
-3.70235 2.10911 2.00621
-1.32713 2.43227 2.22171
1.32713 2.43227 2.22171
3.70237 2.10911 2.00621
5.32863 2.30592 2.16414
6.88205 2.47073 2.22844
7.14301 2.36444 2.2959
7.98408 2.35625 2.43258
8.77146 2.0363 2.48403
-9.34097 2.72038 2.48585
-8.75877 2.58287 2.43726
-7.10839 2.83684 2.26315
-6.92454 2.87266 2.33143
-5.32768 2.62811 2.13459
-1.32483 2.75104 2.23721
1.32483 2.88982 2.23721
5.32771 2.62811 2.13459
6.92457 2.87266 2.33143
7.10841 2.83684 2.26315
8.75879 2.58287 2.43726
9.341 2.72038 2.48585
-8.71799 3.23231 2.25618
-7.04126 3.22046 2.31649
-6.97342 3.10817 2.34204
-1.32226 3.03726 2.22606
1.32152 3.04771 2.22245
6.97345 3.10817 2.34204
7.04129 3.22046 2.31649
8.71801 3.23231 2.25618
-9.65853 3.81496 2.33712
-9.34217 3.64832 2.45416
-8.7368 3.69712 2.24887
8.73683 3.69712 2.24887
9.34219 3.64832 2.45416
9.65856 3.81496 2.33712
-8.75741 4.05821 2.44483
8.75744 4.05821 2.44483
-1.32483 4.89073 2.23721
1.32483 4.89073 2.23721
-1.32483 6.79067 2.23721
1.32483 6.79067 2.23721
-1.27351 8.82132 2.15065
1.27351 8.82132 2.15065
-1.1461 10.6586 2.30059
1.1461 10.6586 2.30059
-0.751577 12.3346 2.23887
0.751577 12.3346 2.23887
-0.099537 -17.5612 2.53789
0.0746528 -17.5632 2.54159
-0.500654 -17.1125 2.53741
-0.235769 -17.2094 2.729
0.172897 -17.1887 2.75892
0.500654 -17.1125 2.53741
-0.580509 -16.6525 2.87586
-0.299082 -16.8192 2.9371
0.302712 -16.8165 2.93774
0.583649 -16.6516 2.87189
-0.738595 -16.2868 2.89852
0.738371 -16.2868 2.89852
-1.06537 -15.5288 2.61315
-0.935398 -15.8658 2.76108
0.935398 -15.8658 2.76108
1.06537 -15.5288 2.61315
-1.1428 -15.0796 2.73935
1.1428 -15.0796 2.73935
-1.20936 -14.7163 2.74929
1.20936 -14.7163 2.74929
-1.28202 -14.3602 2.62936
1.28202 -14.3602 2.62936
-1.33781 -13.7595 2.63249
1.33781 -13.7595 2.63249
-1.33781 -13.3093 2.63249
1.33781 -13.3093 2.63249
-1.33781 -12.8591 2.63249
1.33781 -12.8591 2.63249
-1.33781 -12.4089 2.63249
1.33781 -12.4089 2.63249
-1.33781 -11.9587 2.63249
1.33781 -11.9587 2.63249
-1.33781 -11.4708 2.63249
1.33781 -11.4708 2.63249
-1.33781 -10.5703 2.63249
1.33781 -10.5703 2.63249
-1.33781 -9.6412 2.63249
1.33781 -9.6412 2.63249
-1.33781 -5.71252 2.63249
1.33781 -5.71252 2.63249
-1.33781 -4.03506 2.63249
1.33781 -4.03506 2.63249
-9.34832 -0.082418 2.5136
-7.16511 -0.079991 2.52807
-6.34613 -0.280385 2.54632
-5.52717 -0.279457 2.52005
-5.25419 -0.305297 2.50118
5.25421 -0.305297 2.50118
5.52719 -0.279457 2.52005
6.34617 -0.280385 2.54632
7.16512 -0.079991 2.52807
9.34833 -0.082418 2.5136
-9.34097 0.316415 2.52959
-7.98407 0.426084 2.58028
-7.16511 0.223235 2.61677
-6.34613 0.193732 2.58825
-5.52717 0.185034 2.51824
-1.33781 0 2.63249
1.33781 0 2.63249
5.52719 0.185034 2.51824
6.34617 0.193732 2.58825
7.16512 0.223235 2.61677
7.98408 0.426084 2.58028
9.341 0.316415 2.52959
-9.34097 0.80368 2.57044
-8.80302 0.931184 2.6169
-7.98407 0.726855 2.68721
-7.16511 0.666922 2.65644
-6.34613 0.787467 2.58277
-5.52717 0.519758 2.51032
5.52719 0.519758 2.51032
6.34617 0.787467 2.58277
7.16512 0.666922 2.65644
7.98408 0.726855 2.68721
8.80306 0.931184 2.6169
9.34099 0.80368 2.57044
-9.63405 1.41217 2.63081
-9.28414 1.25587 2.61599
-8.80302 1.20225 2.61775
-7.98407 1.1401 2.72464
-7.16511 1.22255 2.65127
-6.34613 1.40147 2.54794
6.34617 1.40147 2.54794
7.16512 1.22255 2.65127
7.98408 1.1401 2.72464
8.80306 1.20225 2.61775
9.28417 1.25587 2.61599
9.63408 1.41217 2.63081
-10.5564 1.9639 2.68207
-9.66029 1.69043 2.68347
-9.28581 1.83292 2.65255
-8.77051 1.92792 2.58582
-7.98407 1.65762 2.71976
-7.16511 1.77611 2.61912
-6.34613 1.90915 2.50183
6.34617 1.90915 2.50183
7.16512 1.77611 2.61912
7.98408 1.65762 2.71976
8.77054 1.92792 2.58582
9.28583 1.83292 2.65255
9.66032 1.69043 2.68347
10.5564 1.9639 2.68207
-11.3805 2.48995 2.77957
-10.5541 2.11748 2.71764
-9.67317 2.25206 2.73172
-8.76825 2.01736 2.57757
-7.98407 2.29126 2.61881
-7.16511 2.24824 2.57277
7.16512 2.24824 2.57277
7.98408 2.29126 2.61881
8.76827 2.01736 2.57757
9.67319 2.25206 2.73172
10.5541 2.11748 2.71764
11.3806 2.48995 2.77957
-11.3754 2.61701 2.7884
-9.6678 2.79538 2.71674
-9.34097 2.72038 2.64606
-8.77291 2.64413 2.58731
-7.98407 2.58341 2.64753
-1.33781 2.75104 2.63249
1.33781 2.75104 2.63249
7.98408 2.58341 2.64753
8.77293 2.64413 2.58731
9.34099 2.72038 2.64606
9.66783 2.79538 2.71674
11.3754 2.61701 2.7884
-12.1984 3.11059 2.86808
-9.62273 3.18809 2.6728
-8.78015 3.199 2.58788
8.78017 3.199 2.58788
9.62275 3.18809 2.6728
12.1984 3.11059 2.86808
-13.0181 3.63143 2.93586
-9.65132 3.80654 2.69635
-9.34097 3.64832 2.61935
-8.75075 3.72799 2.56687
8.75078 3.72799 2.56687
9.341 3.64832 2.61935
9.65134 3.80654 2.69635
13.0181 3.63143 2.93586
-13.8363 4.16217 2.99721
-8.75839 4.05336 2.54254
8.75842 4.05336 2.54254
13.8363 4.16217 2.99721
-1.33781 4.89073 2.63249
1.33781 4.89073 2.63249
-1.33781 6.79067 2.63249
1.33781 6.79067 2.63249
-1.32441 8.82132 2.66068
1.32441 8.82132 2.66068
-1.1919 10.6586 2.76566
1.1919 10.6586 2.76566
-0.986552 12.3346 2.75851
0.986552 12.3346 2.75851
-0.289812 -16.6444 3.12731
0.273191 -16.6485 3.13009
-0.592127 -16.2742 3.13095
-0.421123 -16.4225 3.22414
0.384411 -16.4176 3.23961
0.591851 -16.2742 3.13095
-0.707176 -15.7534 3.26249
-0.362015 -15.9781 3.46074
0.362015 -15.9781 3.46074
0.707176 -15.7534 3.26249
-0.910721 -15.0796 3.27759
0.910721 -15.0796 3.27759
-1.04432 -14.7163 3.20661
-0.883215 -14.7163 3.41335
0.883215 -14.7163 3.41335
1.04432 -14.7163 3.20661
-1.1391 -14.3602 3.11365
-0.915327 -14.3602 3.43317
0.915327 -14.3602 3.43317
1.1391 -14.3602 3.11365
-1.18867 -13.7595 3.12858
-0.955145 -13.7595 3.45587
0.955145 -13.7595 3.45587
1.18867 -13.7595 3.12858
-1.18867 -13.3093 3.12858
-0.955145 -13.3093 3.45587
0.955145 -13.3093 3.45587
1.18867 -13.3093 3.12858
-1.18867 -12.8591 3.12858
-0.955145 -12.8591 3.45587
0.955145 -12.8591 3.45587
1.18867 -12.8591 3.12858
-1.18867 -12.4089 3.12858
-0.955145 -12.4089 3.45587
0.955145 -12.4089 3.45587
1.18867 -12.4089 3.12858
-1.18867 -11.9587 3.12858
-0.955145 -11.9587 3.45587
0.955145 -11.9587 3.45587
1.18867 -11.9587 3.12858
-1.18867 -11.4708 3.12858
-0.955145 -11.4708 3.45587
0.955145 -11.4708 3.45587
1.18867 -11.4708 3.12858
-1.18867 -10.5703 3.12858
-0.955145 -10.5703 3.45587
0.955145 -10.5703 3.45587
1.18867 -10.5703 3.12858
-1.18867 -9.6412 3.12858
-0.955145 -9.6412 3.45587
0.955145 -9.6412 3.45587
1.18867 -9.6412 3.12858
-1.18867 -5.71252 3.12858
-0.955145 -5.71252 3.45587
0.955145 -5.71252 3.45587
1.18867 -5.71252 3.12858
-1.18867 -4.03506 3.12858
-0.955145 -4.03506 3.45587
0.955145 -4.03506 3.45587
1.18867 -4.03506 3.12858
-1.18867 0 3.12858
-0.955145 0 3.45587
0.955145 0 3.45587
1.18867 0 3.12858
-1.18867 2.75104 3.12858
-0.955145 2.75104 3.45587
0.955145 2.75104 3.45587
1.18867 2.75104 3.12858
-13.0342 3.66759 3.04871
13.0342 3.66759 3.04871
-14.0832 4.38228 3.13475
-13.8451 4.16079 3.05265
13.8452 4.16079 3.05265
14.0833 4.38228 3.13475
-14.1617 4.75993 3.15477
-1.18867 4.89073 3.12858
-0.955145 4.89073 3.45587
0.955145 4.89073 3.45587
1.18867 4.89073 3.12858
14.1618 4.75993 3.15477
-14.1726 5.29369 3.15005
14.1726 5.29369 3.15005
-14.1597 5.6016 3.13894
14.1598 5.6016 3.13894
-1.18867 6.79067 3.12858
-0.955145 6.79067 3.45587
0.955145 6.79067 3.45587
1.18867 6.79067 3.12858
-1.17676 8.82131 3.1454
-0.945584 8.82131 3.4652
0.945584 8.82131 3.4652
1.17676 8.82131 3.1454
-1.05903 10.6586 3.20764
-0.850971 10.6586 3.49924
0.850971 10.6586 3.49924
1.05903 10.6586 3.20764
-0.910042 12.3346 3.22912
0.910042 12.3346 3.22912
-0.299439 12.8773 3.26763
0.300177 12.8773 3.26763
-0.796489 13.2769 3.32426
-0.299439 13.2336 3.26763
0.300177 13.2336 3.26763
0.797219 13.2769 3.32426
-0.796489 13.609 3.32426
-0.299439 13.7109 3.26762
0.300177 13.7109 3.26762
0.797219 13.609 3.32426
-0.796489 14.054 3.32425
-0.299439 14.2738 3.26763
0.300177 14.2738 3.26763
0.797219 14.054 3.32425
-0.796489 14.5788 3.32426
-0.282069 14.8317 3.26627
0.282809 14.8317 3.26627
0.797219 14.5788 3.32426
-0.796489 15.0924 3.32405
-0.267418 15.299 3.26441
0.268161 15.299 3.26441
0.797219 15.0924 3.32405
-0.269878 15.6525 3.26443
0.27062 15.6525 3.26443
-0.168351 16.8426 3.36462
0.144301 16.8426 3.3538
-0.117988 17.1051 3.43827
0.0983233 17.1051 3.4309
-0.268689 -15.6786 3.57215
0.161213 -15.7085 3.5819
-0.655747 -15.0796 3.53092
-0.34098 -15.0796 3.68065
0.22732 -15.0796 3.70033
0.655747 -15.0796 3.53092
-0.69394 -14.7163 3.57386
-0.36083 -14.7163 3.72984
0.240554 -14.7163 3.75035
0.69394 -14.7163 3.57386
-0.719158 -14.3602 3.59716
-0.373954 -14.3602 3.75654
0.249302 -14.3602 3.77749
0.719158 -14.3602 3.59716
-0.633693 -13.7595 3.68626
-0.0431828 -13.5314 3.83941
0.032923 -13.5377 3.84026
0.633693 -13.7595 3.68626
-0.633693 -13.3093 3.68626
-0.0394042 -13.2827 3.84378
0.0332621 -13.2786 3.8441
0.633693 -13.3093 3.68626
-0.633693 -12.8591 3.68626
-0.0886923 -12.8834 3.79729
0.0238328 -12.8903 3.79118
0.633693 -12.8591 3.68626
-0.633693 -12.4089 3.68626
-0.0614884 -12.0766 3.84629
0.0512708 -12.0849 3.84686
0.633693 -12.4089 3.68626
-0.633693 -11.9587 3.68626
-0.0755497 -11.9811 3.83762
0.0496056 -11.9763 3.83923
0.633693 -11.9587 3.68626
-0.633693 -11.4708 3.68626
-0.263525 -11.4708 3.82556
0.131763 -11.4708 3.83853
0.633693 -11.4708 3.68626
-0.633693 -10.5703 3.68627
-0.0730323 -10.6396 3.88641
0.058869 -10.6581 3.88702
0.633693 -10.5703 3.68627
-0.0595806 -10.3555 3.88831
0.0475928 -10.3354 3.88831
-0.633693 -9.6412 3.68627
-0.263525 -9.6412 3.82556
0.131763 -9.6412 3.83853
0.633693 -9.6412 3.68627
-0.633693 -5.71252 3.68627
-0.263525 -5.71252 3.82556
0.131763 -5.71252 3.83853
0.633693 -5.71252 3.68627
-0.633693 -4.03506 3.68627
-0.263525 -4.03506 3.82556
0.131763 -4.03506 3.83853
0.633693 -4.03506 3.68627
-0.0452457 -1.68718 3.85229
0.0386568 -1.69269 3.85358
-0.0475463 -1.08159 3.85229
0.0382794 -1.11177 3.85148
-0.0421782 -0.919836 3.85229
0.034539 -0.908516 3.85229
-0.633693 0 3.68627
-0.263525 0 3.82556
0.131763 0 3.83854
0.633693 0 3.68627
-0.633693 2.75104 3.68627
-0.263525 2.75103 3.82556
0.131763 2.75103 3.83854
0.633693 2.75104 3.68627
-0.633693 4.89073 3.68627
-0.263525 4.89073 3.82556
0.131763 4.89073 3.83854
0.633693 4.89073 3.68627
-14.8713 5.45592 3.77469
-0.001276 5.13984 3.77514
0.0022468 5.13893 3.77368
14.8713 5.45592 3.77469
-14.9022 5.75393 3.80354
14.9022 5.75393 3.80354
-0.633693 6.79067 3.68627
-0.263525 6.79067 3.82556
0.131763 6.79067 3.83854
0.633693 6.79067 3.68627
-0.627338 8.82131 3.69033
-0.260873 8.82131 3.82642
0.130436 8.82131 3.8391
0.627338 8.82131 3.69033
-0.001276 9.95155 3.7217
0.0022468 9.94876 3.72019
-0.001276 10.1304 3.88993
0.0022468 10.1311 3.89044
-0.668604 10.6586 3.6489
-0.142864 10.7524 3.74965
0.0857184 10.7332 3.75316
0.668604 10.6586 3.6489
-0.075425 11.5282 3.7273
0.0502833 11.5282 3.7273
-0.628886 12.3346 3.62198
-0.190072 12.2983 3.76581
0.126714 12.2983 3.77372
0.628886 12.3346 3.62198
-0.103023 13.0127 3.7273
0.0686817 13.0127 3.7273
-0.10666 13.7926 3.7273
0.0711063 13.7926 3.7273
-0.096227 14.4771 3.7273
0.0601419 14.478 3.7273
-0.0972767 14.7294 3.7273
0.0648512 14.7294 3.7273
-0.075425 15.3114 3.7273
0.0502833 15.3114 3.72731
-4.63103 15.8925 3.73335
-0.0404673 15.6937 3.7273
0.0231241 15.7156 3.7273
4.63177 15.8925 3.73335
-5.01572 16.254 3.7785
-4.76727 16.2256 3.74905
4.76801 16.2256 3.74905
5.01645 16.254 3.7785
-5.1475 16.8105 3.79416
-4.74014 16.7813 3.74607
-0.0828409 16.9011 3.67826
0.0721517 16.9015 3.68041
4.74088 16.7813 3.74607
5.14824 16.8105 3.79416
-5.16215 17.141 3.79592
-4.80467 17.1171 3.75325
-0.113557 17.1024 3.68135
0.101112 17.1024 3.68479
4.8054 17.1171 3.75325
5.1629 17.141 3.79592
-0.001276 -12.7695 4.0355
0.0022468 -12.7689 4.03695
-0.001276 5.26593 4.02746
0.0022468 5.26649 4.02892
-0.0495515 12.3202 4.31149
0.0330343 12.2687 4.31149
-0.092343 12.7043 4.31149
0.092343 12.7043 4.31149
-0.113105 13.1364 4.31149
0.113105 13.1364 4.31149
-0.126145 13.6027 4.31149
0.126145 13.6027 4.31149
-0.130586 14.2228 4.31149
0.130586 14.2228 4.31149
-0.125938 14.8635 4.31149
0.125938 14.8635 4.31149
-0.113105 15.2681 4.31149
0.113105 15.2681 4.31149
-0.078822 15.7491 4.31149
0.078822 15.7491 4.31149
-0.033802 16.0501 4.31149
0.016901 16.0787 4.31149
-0.031532 12.8428 4.75217
0.015766 12.8127 4.75217
-0.0735285 13.1593 4.75217
0.0735285 13.1593 4.75217
-0.105516 13.665 4.75217
0.105516 13.665 4.75217
-0.117678 14.0906 4.75217
0.117678 14.0906 4.75217
-0.121837 14.5474 4.75217
0.121837 14.5474 4.75217
-0.117424 15.1444 4.75217
0.117424 15.1444 4.75217
-0.095831 15.6833 4.75217
0.095831 15.6833 4.75217
-0.0462215 16.1719 4.75217
0.0308143 16.2157 4.75217
-0.043073 13.3513 5.19185
0.0287153 13.3053 5.19185
-0.080264 13.6947 5.19185
0.080264 13.6947 5.19185
-0.103975 14.2336 5.19185
0.103975 14.2336 5.19185
-0.113519 14.8574 5.19185
0.113519 14.8574 5.19185
-0.109468 15.4034 5.19185
0.109468 15.4034 5.19185
-0.098308 15.7582 5.19185
0.098308 15.7582 5.19185
-0.05547 16.268 5.19185
0.0416025 16.3246 5.19185
-0.0399085 13.7717 5.63153
0.0266057 13.729 5.63153
-0.082741 14.2478 5.63153
0.082741 14.2478 5.63153
-0.101622 14.7731 5.63153
0.101622 14.7731 5.63153
-0.105201 15.1675 5.63153
0.105201 15.1675 5.63153
-0.0993818 15.729 5.63153
0.0993818 15.729 5.63153
-0.074382 16.2808 5.63153
0.074382 16.2808 5.63153
-0.0399085 16.5691 5.63153
0.0266057 16.6077 5.63153
-0.0473453 14.2898 6.07121
0.035509 14.2359 6.07121
-0.083909 14.7759 6.07121
0.083909 14.7759 6.07121
-0.095234 15.296 6.07121
0.095234 15.296 6.07121
-0.093432 15.9215 6.07121
0.093432 15.9215 6.07121
-0.0762125 16.3651 6.07121
0.0762125 16.3651 6.07121
-0.03676 16.7676 6.07121
0.0245067 16.8037 6.07121
-0.0376505 14.7701 6.62081
0.0251003 14.7534 6.65745
-0.0647838 15.2421 6.73073
0.0647838 15.2421 6.73073
-0.078524 15.7003 6.80401
0.078524 15.7003 6.80401
-0.0808156 16.3047 6.73073
0.0808156 16.3047 6.73073
-0.0582925 16.8154 6.73073
0.0582885 16.8154 6.73073
-0.027942 17.1186 6.80401
0.0167652 17.136 6.7747
-0.018624 15.4012 7.39025
0.009312 15.3835 7.39025
-0.0497147 15.6877 7.39025
0.0497147 15.6877 7.39025
-0.0707115 16.2729 7.39026
0.0707115 16.2729 7.39026
-0.0679626 16.7474 7.39026
0.0679626 16.7474 7.39026
-0.0351553 17.2928 7.39026
0.0263665 17.3317 7.39026
-0.0209827 15.9101 7.87655
0.0125896 15.8959 7.88587
-0.0464918 16.2447 7.89986
0.0464918 16.2447 7.89986
-0.0598218 16.8357 7.87655
0.0598218 16.8357 7.87655
-0.050956 17.1805 7.93482
0.050956 17.1805 7.93482
-0.0228163 17.5911 7.89986
0.0152108 17.6162 7.89986
-0.0134325 16.2685 8.07968
0.0080595 16.2527 8.07699
-0.0259565 16.7339 8.09427
0.0173043 16.7339 8.09427
-0.0239296 17.2173 8.09427
0.0154839 17.2145 8.09427
-0.0104307 17.6153 8.08137
0.005958 17.6233 8.07764
