ply
format ascii 1.0
comment Generated by Slim Ghodhbane
element vertex 1046
property double x
property double y
property double z
end_header
-72.7483 226.289 -75.1375
-64.9314 225.434 -75.0575
-54.6875 226.521 -75.5115
-43.9423 225.85 -75.5393
-33.3201 224.441 -75.004
-25.2866 225.698 -75.2247
-15.1845 224.932 -74.5577
-3.49772 224.329 -75.2335
2.64651 227.684 -73.3874
-74.1296 236.577 -75.1423
-63.6956 235.671 -76.5573
-53.771 235.917 -76.72
-46.0858 235.981 -76.8459
-35.9723 234.355 -77.0117
-25.2464 235.156 -77.1876
-14.4824 235.858 -77.364
-4.11104 234.457 -77.534
2.14745 234.666 -73.382
-74.5718 246.513 -74.9825
-63.8176 244.536 -76.5553
-55.6087 245.018 -76.6898
-45.0738 246.273 -76.8625
-35.2869 244.806 -77.023
-25.891 245.816 -77.177
-15.744 245.269 -77.3434
-5.06218 245.548 -77.5185
1.87605 243.048 -75.0696
-74.0489 256.718 -75.6707
-63.7355 254.273 -76.5566
-54.8219 256.389 -76.7027
-43.7533 256.408 -76.8842
-35.5956 254.607 -77.0179
-24.0262 253.342 -77.2076
-14.9066 255.953 -77.3571
-5.24848 255.869 -77.5154
2.16313 254.925 -74.245
-74.4496 264.344 -75.0542
-63.0196 264.74 -76.5683
-53.1726 265.854 -76.7297
-44.4305 264.376 -76.8731
-34.7989 263.456 -77.031
-23.8816 264.837 -77.2099
-14.919 266.244 -77.3568
-5.62457 264.316 -77.5092
1.48053 265.421 -75.1121
-75.0735 275.542 -74.9804
-65.3331 275.703 -76.5304
-54.9579 273.986 -76.7005
-44.5325 274.596 -76.8714
-34.3403 274.742 -77.0385
-25.04 274.396 -77.1909
-16.4794 276.056 -77.3313
-4.11066 273.201 -77.534
2.38389 274.929 -73.8949
-74.5314 285.39 -75.4559
-63.6815 284.071 -76.5575
-54.4715 284.342 -76.7085
-43.5957 284.265 -76.8867
-34.205 285.301 -77.0407
-26.0284 284.02 -77.1747
-16.4354 285.225 -77.332
-5.41727 284.337 -77.5126
2.5412 285.171 -73.9294
-73.479 293.982 -74.2837
-64.7602 294.909 -74.18
-54.5734 296.092 -74.1258
-44.7873 294.014 -75.8625
-34.7307 296.053 -74.3611
-25.7427 294.905 -75.2748
-14.9323 295.861 -74.5527
-4.70821 296.65 -74.5376
1.9096 292.277 -75.3703
-68.5 323.536 -70.0188
-65.7993 26.3164 -66.9318
-54.8956 27.0114 -69.0963
-45.807 26.6182 -69.0963
-36.0997 27.6351 -69.0963
-25.9546 26.6122 -69.0963
-15.1155 26.4647 -69.0963
-4.5 26.8419 -65.6063
-66.9782 34.3989 -67.229
-56.1984 35.7657 -69.0963
-44.6313 34.2957 -69.0963
-33.074 32.8825 -69.0963
-26.3768 35.3365 -69.0963
-14.059 33.7349 -69.0963
-4.99634 34.6298 -66.1722
-67.4371 45.4537 -66.1482
-54.5965 45.4844 -69.0963
-43.6572 44.5866 -69.0963
-34.2326 44.519 -69.0963
-23.9475 44.5364 -69.0963
-15.1659 43.8111 -69.0963
-5.89743 45.7171 -66.6905
-66.4931 54.602 -67.2096
-53.6044 55.0927 -69.0963
-43.5404 53.3605 -69.0963
-34.2286 55.436 -69.0963
-24.0717 55.5288 -69.0963
-14.6365 53.2999 -69.0963
-4.76292 54.6641 -65.4597
-66.2314 65.3371 -67.1073
-55.1936 65.2457 -69.0963
-44.7886 62.8085 -69.0963
-34.6579 64.7128 -69.0963
-25.3357 64.241 -69.0963
-15.0858 65.4193 -69.0963
-4.60779 64.7591 -64.7063
-66.6411 75.4379 -67.1369
-54.9034 75.5083 -69.0963
-44.5387 74.4312 -69.0963
-33.5898 75.5455 -69.0963
-25.6358 75.0591 -69.0963
-14.1215 75.257 -69.0963
-4.9757 73.4166 -66.6192
-66.7209 85.2861 -67.4383
-54.5726 84.6823 -69.0963
-45.0029 85.704 -69.0963
-34.5558 84.6285 -69.0963
-24.8759 84.8015 -69.0963
-14.9947 85.1405 -69.0963
-5.39488 84.163 -66.3489
-65.5121 94.0024 -66.3718
-54.0648 95.2758 -69.0963
-43.8519 95.385 -69.0963
-33.7915 94.1543 -69.0963
-23.4945 94.2489 -69.0963
-15.4596 96.5492 -69.0963
-5.4919 93.9974 -66.196
-66.4621 104.288 -66.5085
-54.1486 106.236 -69.0963
-45.3112 105.734 -69.0963
-35.1867 104.892 -69.0963
-22.6113 104.621 -69.0963
-14.5624 104.552 -69.0963
-5.85689 104.146 -66.0847
-65.7174 114.126 -67.2191
-53.4483 115.567 -69.0963
-44.2215 115.158 -69.0963
-35.2813 115.038 -69.0963
-25.8735 115.003 -69.0963
-15.2612 115.038 -69.0963
-6.18142 114.109 -67.5003
-66.2375 124.883 -67.2347
-55.2788 124.804 -69.0963
-44.6233 124.573 -69.0963
-35.0254 125.353 -69.0963
-25.0046 125.278 -69.0963
-15.1788 124.743 -69.0963
-5.44241 125.114 -66.3498
-67.6461 134.963 -66.21
-55.398 134.159 -69.0963
-46.0673 134.634 -69.0963
-35.4059 135.89 -69.0963
-25.502 136.225 -69.0963
-15.1999 134.323 -69.0963
-5.0936 134.806 -65.7737
-65.8322 144.316 -67.1439
-56.7845 144.658 -69.0963
-47.2636 144.498 -69.0963
-35.8411 145.861 -69.0963
-26.689 144.103 -69.0963
-17.1776 144.303 -69.0963
-6.37753 145.876 -67.2736
-66.9773 154.554 -66.4523
-54.7647 155.181 -69.0963
-43.5179 154.772 -69.0963
-35.9636 155.747 -69.0963
-26.2701 154.424 -69.0963
-14.7694 155.908 -69.0963
-5.2544 154.93 -65.7579
-66.6218 164.243 -66.418
-54.7922 164.132 -69.0963
-45.5806 164.767 -69.0963
-34.6908 165.78 -69.0963
-25.667 163.306 -69.0963
-15.6358 166.002 -69.0963
-5.4035 164.491 -66.6743
-65.7397 174.97 -67.8036
-53.6147 175.152 -69.0963
-43.5025 176.11 -69.0963
-35.0845 174.804 -69.0963
-24.4375 175.491 -69.0963
-16.4379 174.016 -69.0963
-6.00757 173.725 -67.1829
-65.7181 185.159 -67.0462
-55.577 185.703 -69.0963
-46.1735 185.327 -69.0963
-34.4816 184.82 -69.0963
-26.26 184.499 -69.0963
-14.0317 184.284 -69.0963
-4.92892 184.389 -65.1575
-66.6433 195.115 -65.9457
-55.4888 194.003 -69.0963
-44.7496 195.419 -69.0963
-34.1666 192.388 -69.0963
-23.6908 195.693 -69.0963
-15.8078 194.062 -69.0963
-6.16218 196.527 -68.0511
-66.5083 205.362 -66.5036
-54.956 206.161 -69.0963
-45.7827 204.175 -69.0963
-36.1538 204.841 -69.0963
-25.837 203.579 -69.0963
-15.021 203.773 -69.0963
-5.44484 205.94 -65.4833
-66.2313 214.011 -67.0571
-54.8537 215.461 -69.0963
-44.4912 215.467 -69.0963
-34.7601 214.405 -69.0963
-23.2852 213.662 -69.0963
-14.4017 213.429 -69.0963
-5.48964 215.635 -66.0154
-74.7092 224.451 -65.307
-66.8412 220.808 -66.4777
-53.0818 220.981 -69.0963
-45.4585 220.976 -69.1373
-36.4443 221.491 -69.632
-15.1117 220.464 -69.0963
-2.6922 222.239 -64.674
2.29553 226.157 -65.6083
-76.8781 234.888 -65.8483
2.99361 234.774 -62.3017
-76.8806 245.506 -65.9965
2.9351 245.889 -65.8709
-76.8767 255.995 -65.7589
2.93956 255.039 -65.5984
-76.872 266.69 -65.4746
2.9373 264.99 -65.7368
-76.8665 274.496 -65.1349
2.97225 273.679 -63.6046
-76.8666 283.181 -65.1456
2.94144 284.436 -65.4839
-74.8143 294.642 -65.2829
-2.34896 298.983 -65.737
1.98011 294.243 -64.8547
-66.0089 304.697 -67.5591
-55.6819 305.056 -69.0963
-44.3165 303.175 -69.2128
-33.8788 305.137 -69.1407
-24.9903 304.234 -69.0963
-14.2206 305.855 -69.0963
-5.09443 304.915 -65.6311
-66.1867 314.307 -66.0403
-52.7115 313.214 -69.0963
-43.0539 314.694 -69.0963
-34.5452 314.785 -69.0963
-24.4205 313.676 -69.0963
-14.0308 315.477 -69.0963
-4.58564 315.013 -65.7839
-66.7524 324.718 -65.5861
-54.7192 324.016 -69.0963
-45.0409 325.026 -69.0963
-35.1955 325.537 -69.0963
-24.319 326.313 -69.0963
-15.1315 324.846 -69.0963
-5.54944 324.795 -65.9323
-65.5279 334.365 -66.2089
-56.2445 335.436 -68.0127
-46.1973 335.027 -68.1084
-34.6791 334.858 -67.9411
-24.9623 336.151 -67.5833
-14.6376 336.097 -67.7745
-5.46239 334.178 -66.3246
-62.0004 346.483 -62.585
-54.775 344.566 -63.5655
-43.8311 344.479 -63.609
-33.7985 344.13 -63.7822
-24.1552 344.998 -63.3511
-14.8696 345.436 -62.7933
-7.91155 340.302 -64.8015
-57.2403 351.201 -60.2679
-35.1858 350.396 -60.6679
-68.5 27.4795 -56.0993
-4.5 26.8857 -54.4234
-68.5 34.0988 -53.7977
-4.5 35.4705 -53.9
-68.5 45.2807 -55.0396
-4.5 45.2616 -55.1846
-68.5 57.2056 -54.7472
-4.5 54.3785 -53.4672
-68.5 65.0304 -55.8878
-4.5 63.4863 -54.4156
-68.5 74.405 -55.7035
-4.5 74.8068 -56.1667
-68.5 85.1007 -57.0917
-4.5 85.5665 -54.34
-68.5 94.5142 -54.5434
-4.5 95.7232 -54.8824
-68.5 104.27 -54.641
-4.5 105.182 -54.7591
-68.5 115.358 -55.6963
-4.5 115.302 -55.884
-68.5 126.28 -55.309
-4.5 126.068 -56.214
-68.5 134.758 -55.2083
-4.5 134.49 -55.9349
-68.5 144.578 -55.1276
-4.5 144.779 -55.2835
-68.5 156.721 -54.2446
-4.5 154.252 -56.0185
-68.5 166.669 -53.8978
-4.5 165.618 -54.6407
-68.5 175.422 -57.1482
-4.5 173.997 -55.5907
-68.5 184.758 -54.5171
-4.5 186.359 -56.7915
-68.5 195.189 -53.1564
-4.5 195.567 -56.647
-68.5 205.509 -54.3921
-4.5 203.453 -53.4736
-68.5 215.999 -54.6886
-4.5 215.768 -56.9534
-74.4254 224.993 -54.5336
-0.673386 223.21 -50.6823
2.26964 226.326 -54.0661
-76.6867 234.917 -54.1727
3.12487 235.555 -54.2949
-76.7116 244.695 -55.6889
3.09646 245.655 -56.0277
-76.7144 255.518 -55.8629
3.10167 255.737 -55.7097
-76.7073 265.341 -55.4282
3.12033 265.061 -54.5718
-76.7003 272.62 -55.0007
3.15496 273.894 -52.4592
-76.7109 284.132 -55.6496
3.10562 284.995 -55.4689
-73.73 295.955 -55.7321
-2.07901 298.799 -56.956
2.03194 294.641 -56.8239
-68.5 306.546 -53.9355
-4.5 305.675 -54.4334
-68.5 315.831 -54.245
-4.5 315.03 -55.2519
-68.5 325.235 -53.8825
-4.5 324.524 -52.907
-67.5416 334.83 -55.098
-5.4966 334.327 -55.0408
-63.2153 343.728 -55.5766
-10.9293 346.374 -54.0259
-8.92511 342.342 -54.3668
-56.227 353.486 -56.4889
-45.6795 356.092 -57.8371
-36.1572 356.276 -57.7456
-22.8856 354.498 -58.6293
-15.1505 354.516 -54.5078
-53.3932 363.792 -53.2496
-46.2885 364.847 -53.8405
-35.6406 365.774 -53.1709
-25.9357 364.361 -54.0686
-18.6648 362.518 -52.2295
-50.1744 373.35 -52.3462
-44.5726 375.477 -52.3462
-34.3046 374.607 -52.3462
-24.2556 374.663 -52.3462
-51.5951 388.672 -52.3462
-46.0081 384.984 -52.3462
-36.4082 384.803 -52.3462
-25.1976 386.094 -52.3284
-51.9884 395.073 -52.3462
-46.4056 394.083 -52.3462
-35.7341 394.994 -52.3462
-23.9464 395.91 -52.3462
-51.6176 404.441 -52.9928
-45.5411 405.911 -52.2258
-35.2142 404.629 -52.2657
-24.9008 403.695 -52.3181
-50.6838 411.853 -52.3184
-44.5285 415.615 -51.3872
-35.7795 415.355 -51.3559
-24.9165 414.132 -51.2811
-44.1857 426.51 -50.4139
-34.7326 425.391 -50.3502
-24.8676 422.44 -50.6459
-68.5 26.1372 -44.0526
-4.5 26.6471 -43.7224
-68.5 34.7659 -43.9071
-4.5 34.5071 -43.3384
-68.5 44.2969 -44.0253
-4.5 45.2553 -44.8576
-68.5 55.177 -44.8057
-4.5 55.0677 -43.7825
-68.5 66.6138 -44.4599
-4.5 63.2609 -44.2008
-68.5 76.775 -44.7015
-4.5 74.2277 -43.2365
-68.5 84.9837 -45.2846
-4.5 84.0001 -45.1547
-68.5 94.2612 -43.5463
-4.5 95.1539 -43.9961
-68.5 105.253 -44.043
-4.5 106.9 -45.3831
-68.5 114.973 -45.9777
-4.5 114.472 -44.0677
-68.5 125.663 -44.2411
-4.5 123.999 -44.8479
-68.5 135.832 -43.1297
-4.5 134.489 -45.9857
-68.5 145.603 -44.548
-4.5 145.057 -45.0384
-68.5 153.805 -44.4188
-4.5 154.942 -45.9329
-68.5 162.294 -44.5829
-4.5 164.625 -45.488
-68.5 175.672 -45.8336
-4.5 175.271 -44.2952
-68.5 184.855 -46.3299
-4.5 184.755 -45.75
-68.5 195.96 -43.612
-4.5 193.277 -43.1969
-68.5 205.438 -44.283
-4.5 205.678 -43.5354
-68.5 214.854 -45.5266
-4.5 213.182 -46.9002
-75.3555 225.785 -44.6722
-69.4864 221.681 -45.3003
-3.08228 221.783 -44.9503
3.21776 227.05 -46.2241
-76.5383 235.56 -45.1185
3.30687 234.031 -43.1926
-76.5362 244.293 -44.9926
3.28688 244.94 -44.4117
-76.5464 255.048 -45.612
3.29407 255.03 -43.9735
-76.526 265.545 -44.371
3.26942 265.382 -45.4768
-76.5526 274.187 -45.9898
3.26679 275.748 -45.6375
-76.5625 283.426 -46.5957
3.29514 284.405 -43.9083
-74.0427 295.266 -46.357
-1.56209 298.422 -47.6691
2.77065 292.755 -45.446
-68.5358 304.356 -44.2524
-4.5 304.742 -44.7796
-68.5 314.431 -44.7872
-4.5 314.968 -44.4259
-68.5 324.487 -43.8244
-4.5 323.215 -46.1789
-67.6849 334.708 -44.2042
-5.18514 333.259 -44.4464
-62.8836 344.399 -46.1007
-11.3557 347.232 -44.9527
-8.82368 342.138 -45.4844
-57.6449 354.605 -44.8465
-14.9479 354.46 -44.2665
-53.3186 363.704 -45.3485
-21.1072 367.389 -45.5524
-18.9095 362.431 -46.3425
-51.75 372.821 -45.4629
-21.25 375.166 -45.8084
-51.75 383.172 -46.0221
-21.25 385.21 -44.3565
-51.75 393.478 -45.3
-21.25 393.934 -44.6432
-51.6082 403.744 -44.8736
-21.4048 405.422 -44.0594
-50.4594 412.89 -45.2866
-49.7012 417.401 -43.7794
-22.2856 414.256 -43.9307
-48.5479 424.408 -44.7049
-23.7146 426.376 -44.6606
-45.5205 435.115 -46.9096
-34.5507 434.82 -49.4053
-25.5674 434.789 -46.478
-43.9183 444.748 -45.3469
-34.6852 444.758 -48.4094
-27.2809 446.443 -46.8415
-43.2939 453.545 -45.9135
-35.4085 455.941 -47.2888
-27.18 455.757 -45.8419
-41.9024 464.502 -43.7571
-34.2888 464.311 -46.45
-28.115 463.698 -42.1927
-40.2961 474.081 -43.2552
-35.9665 476.079 -45.2707
-29.3568 474.5 -44.2522
-34.3846 484.377 -42.9642
-33.661 494.727 -43.4119
-35.83 501.284 -42.7449
-68.5 26.7771 -33.3715
-4.5 26.5207 -34.176
-68.5 34.6768 -33.9045
-4.5 33.4288 -35.2454
-68.5 43.2459 -33.8556
-4.5 44.3659 -34.5187
-68.5 54.455 -36.0118
-4.5 53.681 -35.366
-68.5 63.6933 -34.812
-4.5 65.5242 -34.6647
-68.5 74.9311 -33.5307
-4.5 76.1101 -34.3358
-68.5 84.7919 -33.4176
-4.5 85.3713 -35.307
-68.5 94.8458 -34.6353
-4.5 95.6811 -35.4655
-68.5 104.577 -33.9583
-4.5 104.712 -34.946
-68.5 115.392 -35.4187
-4.5 114.91 -35.3767
-68.5 126.128 -34.299
-4.5 124.425 -35.5305
-68.5 136.155 -34.2076
-4.5 135.102 -35.6736
-68.5 145.002 -34.7296
-4.5 145.754 -34.0382
-68.5 153.876 -34.8521
-4.5 155.745 -34.9069
-68.5 163.86 -33.6645
-4.5 165.388 -35.2979
-68.5 174.444 -35.3604
-4.5 174.556 -34.6208
-68.5 185.057 -35.3644
-4.5 185.666 -35.636
-68.5 197.013 -34.0804
-4.5 195.01 -34.2067
-68.5 207.046 -33.4553
-4.5 205.565 -34.464
-68.5 216.009 -35.5256
-4.5 214.803 -36.6191
-74.7796 225.515 -36.1748
-68.5 221.034 -37.9261
-1.91387 222.392 -34.2103
3.45722 227.46 -33.532
-76.3661 235.659 -34.6115
3.44971 235.912 -34.4793
-76.3725 244.019 -35.007
3.44591 244.684 -34.7109
-76.3866 253.506 -35.866
3.44113 254.836 -35.0025
-76.3713 265.158 -34.9334
3.4313 263.573 -35.6022
-76.3816 274.852 -35.5621
3.45291 274.678 -34.2843
-76.3837 284.562 -35.6894
3.44994 284.372 -34.4654
-75.1565 294.842 -36.5518
-1.71728 298.615 -34.9042
2.44328 294.023 -36.6605
-68.7804 305.304 -35.1654
-4.5 305.311 -34.2084
-68.5 317.744 -34.9353
-4.5 314.245 -35.3344
-68.5 327.011 -35.3586
-4.5 324.207 -35.0605
-67.681 335.6 -35.8826
-5.83542 336.089 -34.1309
-61.9115 346.418 -35.8049
-11.4396 347.401 -34.1011
-8.86415 342.219 -35.787
-57.0374 355.564 -33.4012
-15.4028 355.361 -34.5437
-52.8295 365.115 -34.4046
-21.1127 367.391 -32.4743
-18.9867 362.545 -36.4915
-51.75 375.292 -35.3918
-21.25 374.565 -33.9937
-51.75 383.979 -35.2966
-21.25 383.711 -35.5362
-51.75 393.64 -34.7715
-21.25 394.685 -34.144
-51.732 403.324 -35.1539
-21.4755 407.008 -33.6567
-50.5515 411.913 -35.9834
-49.562 417.826 -34.5946
-22.3594 414.882 -33.4597
-48.4478 424.572 -34.9601
-23.4255 423.924 -34.8572
-46.8958 433.971 -35.5279
-24.7119 434.835 -34.7427
-44.1415 444.75 -33.9928
-25.7209 443.393 -35.8775
-43.5048 455.237 -34.6298
-35.405 454.792 -30.9263
-26.9826 454.38 -35.891
-41.2577 465.143 -34.202
-34.1643 463.89 -32.6012
-28.309 465.254 -35.9171
-40.4897 473.614 -36.324
-34.3819 474.943 -34.6363
-29.2955 473.71 -37.2117
-34.2 483.704 -37.6671
-35.0931 494.667 -38.4326
-32.7928 503.373 -39.8843
-68.5 26.851 -23.6524
-4.5 26.5177 -27.0604
-68.5 34.2229 -24.5822
-4.5 35.1596 -25.2105
-68.5 44.0651 -24.1539
-4.5 45.2152 -25.6248
-68.5 55.2725 -25.1273
-4.5 55.4914 -24.4883
-68.5 64.607 -24.2753
-4.5 64.4738 -24.7405
-68.5 73.6205 -24.5805
-4.5 73.8685 -24.5135
-68.5 84.7374 -24.6366
-4.5 84.3159 -25.0406
-68.5 93.7684 -24.1654
-4.5 95.0617 -23.3201
-68.5 104.194 -25.2901
-4.5 102.681 -25.0537
-68.5 115.596 -26.3501
-4.5 114.652 -23.8724
-68.5 125.344 -24.6494
-4.5 124.741 -24.9416
-68.5 133.849 -25.5418
-4.5 135.791 -24.1967
-68.5 144.888 -24.5097
-4.5 147.232 -25.746
-68.5 155.293 -26.399
-4.5 154.863 -24.2847
-68.5 166.372 -23.9651
-4.5 165.622 -24.9226
-68.5 175.591 -24.1148
-4.5 175.838 -25.2921
-68.5 185.492 -24.8972
-4.5 185.37 -25.043
-68.5 195.617 -24.154
-4.5 194.769 -22.8045
-68.5 205.31 -23.8939
-4.5 206.282 -24.5882
-68.5 215.259 -24.5242
-4.5 214.962 -24.3664
-73.7216 225.326 -24.758
-68.5 221.089 -28.6336
-1.57701 222.608 -25.3942
3.48433 226.814 -24.4126
-76.2079 236.158 -24.9634
3.64132 234.801 -22.791
-76.1819 242.104 -23.3765
3.61903 244.957 -24.1509
-76.2251 254.25 -26.0136
3.60436 255.239 -25.0454
-76.1885 265.811 -23.7785
3.60839 266.509 -24.8
-76.1986 274.795 -24.3986
3.61546 274.487 -24.3682
-76.2205 284.133 -25.735
3.62052 283.99 -24.0597
-74.7506 294.606 -24.5008
-1.72927 298.681 -24.8271
3.374 292.891 -25.5813
-68.6915 305.101 -25.242
-4.43226 303.826 -24.9055
-68.5 315.35 -24.8906
-4.5 315.98 -25.7559
-68.5 324.99 -24.4505
-4.5 326.566 -23.8166
-67.8981 334.583 -23.8575
-6.42118 337.304 -23.248
-63.1654 344.258 -26.6697
-11.4686 347.455 -23.4652
-9.60632 343.712 -26.216
-56.9035 355.992 -24.4264
-14.9897 354.507 -25.9989
-52.6553 365.261 -24.439
-42.6624 366.209 -21.1334
-34.8194 365.485 -21.1629
-23.7523 365.737 -22.7509
-18.2245 360.97 -25.6011
-51.75 376.497 -24.828
-45.2865 374.741 -21.8463
-34.5605 373.901 -21.8463
-23.2623 375.076 -23.5458
-51.7263 385.66 -24.1914
-46.0167 383.488 -21.8463
-36.6489 384.783 -21.8463
-23.9509 384.847 -22.7331
-51.75 395.972 -24.0251
-44.7574 394.371 -21.8463
-35.0526 393.832 -21.8463
-22.9239 393.537 -22.8397
-51.9018 406.526 -25.0403
-44.9286 404.702 -21.9859
-34.2833 405.108 -22.0644
-23.7739 405.227 -23.0749
-50.8188 413.784 -25.9808
-44.1987 414.186 -23.4504
-34.343 415.537 -23.699
-23.7134 416.235 -25.3438
-45.8864 423.506 -25.7451
-35.0525 425.115 -25.4625
-25.5574 424.625 -25.3703
-44.9488 433.662 -27.036
-34.3561 434.564 -27.2022
-26.6794 435.025 -27.287
-44.3899 443.654 -28.8757
-35.4975 444.482 -29.028
-27.1705 444.877 -29.0748
-68.5 26.5705 -13.1042
-4.5 26.8466 -15.2068
-68.5 35.2721 -13.3561
-4.5 34.4871 -15.157
-68.5 44.9986 -14.6739
-4.5 44.6482 -15.7692
-68.5 55.2793 -15.8728
-4.5 52.2517 -15.9033
-68.5 65.5605 -14.4772
-4.5 64.8911 -15.8074
-68.5 76.0651 -13.8365
-4.5 74.8775 -13.3159
-68.5 84.4967 -14.0583
-4.5 86.3928 -15.7162
-68.5 94.1212 -15.5501
-4.5 96.1624 -14.5538
-68.5 105.327 -14.534
-4.5 106.586 -14.9874
-68.5 114.56 -14.7457
-4.5 114.899 -13.7842
-68.5 124.177 -13.4994
-4.5 126.135 -15.1537
-68.5 135.051 -13.8759
-4.5 135.397 -14.4946
-68.5 145.881 -15.0723
-4.5 144.112 -15.1866
-68.5 155.705 -15.8529
-4.5 154.532 -16.6425
-68.5 163.985 -15.4545
-4.5 165.464 -14.969
-68.5 174.418 -14.5296
-4.5 174.33 -14.7927
-68.5 186.202 -14.3852
-4.5 185.425 -14.8489
-68.5 195.422 -14.9094
-4.5 197.097 -14.7657
-68.5 205.879 -14.8121
-4.5 204.451 -16.4699
-68.5 214.258 -16.3933
-4.5 215.172 -12.8668
-74.9435 226.307 -14.6932
-68.5 221.2 -12.0427
-3.74491 221.518 -17.6247
1.96329 224.826 -14.2722
-76.0293 235.885 -14.0713
3.77203 236.782 -14.8174
-76.0681 246.543 -16.4349
3.7878 244.978 -13.8555
-76.0399 255.63 -14.7135
3.78181 255.191 -14.2214
-76.0364 264.69 -14.5018
3.76736 264.072 -15.1024
-76.0483 274.477 -15.2305
3.77779 274.658 -14.4662
-76.0242 284.636 -13.7556
3.78207 284.663 -14.2056
-73.422 296.952 -14.5298
-0.835065 298.006 -15.4677
3.37406 292.558 -16.1706
-68.5 304.246 -14.8636
-4.38585 305.36 -14.6624
-68.5 314.879 -14.9505
-4.5 315.565 -15.6689
-68.5 325.309 -13.0781
-4.5 324.141 -14.2699
-67.7438 335.432 -15.2752
-5.87888 335.944 -15.3928
-63.1714 344.466 -15.5612
-54.579 346.861 -11.8234
-44.3192 347.17 -11.9213
-33.321 346.99 -11.8319
-25.0758 346.118 -11.3983
-13.4818 346.66 -13.4717
-9.09385 342.673 -15.9552
-55.0659 355.247 -16.8571
-45.1495 356.205 -16.5138
-33.8167 354.322 -15.4755
-23.7861 356.066 -16.3424
-16.1045 353.668 -14.7786
-48.9676 362.65 -19.886
-36.2569 360.474 -18.5986
-64.2649 27.7718 -5.29139
-53.2781 28.5142 -5.08413
-45.4999 27.4277 -5.08605
-35.4085 26.6023 -5.08854
-24.7396 26.5066 -5.09117
-12.9503 26.3917 -5.09408
-4.4904 26.9898 -5.09616
-65.3428 34.7614 -5.60887
-53.6723 35.3453 -5.08403
-43.9212 35.1196 -5.08644
-34.0064 33.6125 -5.08888
-25.018 34.7034 -5.0911
-14.5633 35.0822 -5.09368
-4.98344 35.4169 -6.04179
-66.5201 45.4333 -6.365
-57.0063 45.4337 -5.08321
-45.0163 44.4804 -5.08616
-35.5149 43.7301 -5.08851
-24.7197 43.4109 -5.09117
-15.4203 45.6358 -5.09346
-5.69573 42.8263 -7.3232
-66.4999 53.4261 -5.92126
-55.4371 55.4351 -5.08359
-45.6649 54.593 -5.086
-35.2003 53.9968 -5.08858
-24.5866 54.7394 -5.0912
-14.0336 53.9851 -5.09383
-5.66959 55.2096 -6.65513
-65.0487 63.8732 -5.08202
-53.5114 64.0597 -5.08407
-45.2297 65.2578 -5.08611
-35.9064 64.9157 -5.08841
-24.6109 65.7252 -5.09119
-16.7644 65.6118 -5.09315
-6.39112 65.3933 -5.97133
-66.4385 73.7264 -6.08809
-55.06 73.7561 -5.08368
-44.7659 74.8899 -5.08622
-34.846 73.9007 -5.08867
-25.8049 75.7499 -5.0909
-16.6095 73.2524 -5.09329
-6.11806 76.0603 -5.09593
-65.8273 85.1137 -5.9196
-54.0719 83.9191 -5.08393
-44.3484 85.2525 -5.08632
-33.6339 84.2893 -5.08897
-24.6861 86.4614 -5.09122
-13.6338 83.5156 -5.09427
-4.68025 85.0149 -6.72824
-65.4717 95.3935 -6.04757
-55.6749 94.582 -5.08353
-47.1988 94.5643 -5.08562
-35.4156 95.0063 -5.08853
-25.4415 96.3849 -5.09107
-13.9691 94.6272 -5.09431
-5.2112 94.4465 -6.24372
-66.4794 105.316 -5.34345
-54.4919 104.891 -5.08382
-44.0476 105.539 -5.0864
-34.5357 104.764 -5.08874
-24.6984 106.148 -5.09139
-14.9206 105.138 -5.09418
-5.23568 105.251 -7.21557
-64.3984 115.333 -5.10455
-55.2001 116.774 -5.08364
-42.9074 116.003 -5.08668
-33.8368 114.836 -5.08895
-25.6663 118.508 -5.09128
-16.9704 115.229 -5.09372
-6.60998 115.221 -6.04837
-65.3231 125.1 -5.19143
-53.6192 125.706 -5.08403
-45.5153 125.101 -5.08603
-35.3721 125.99 -5.08861
-24.4698 124.791 -5.0917
-15.0338 125.668 -5.09441
-6.46942 125.65 -6.43618
-64.8154 135.355 -5.1016
-54.2585 134.707 -5.08387
-43.4868 135.008 -5.08653
-34.0546 134.758 -5.08909
-23.9379 134.149 -5.09197
-15.2903 136.503 -5.09448
-6.5196 133.911 -5.95203
-65.4884 144.13 -5.9869
-54.0493 144.429 -5.08392
-45.3136 144.986 -5.08608
-33.8286 144.904 -5.08928
-23.9629 143.912 -5.09209
-16.5192 146.199 -5.09425
-6.26085 145.287 -5.97087
-64.7635 153.573 -5.74913
-55.1529 156.332 -5.08365
-44.062 155.054 -5.0865
-32.9433 155.376 -5.08967
-23.6451 155.718 -5.09234
-14.7078 155.323 -5.09489
-5.75125 155.943 -7.14905
-66.3307 164.238 -5.95599
-54.0513 166.918 -5.08393
-44.7402 164.721 -5.08642
-34.5235 165.134 -5.08935
-23.5146 165.986 -5.09251
-14.8875 164.045 -5.09495
-6.18577 165.401 -5.58042
-64.6629 174.81 -5.75217
-55.6152 174.752 -5.08353
-46.1607 174.991 -5.08614
-36.5591 174.997 -5.08889
-23.1254 176.44 -5.09275
-15.0656 174.503 -5.09503
-6.48515 175.857 -5.49042
-65.8269 184.892 -6.01999
-54.9608 183.217 -5.08376
-46.1798 185.276 -5.08627
-35.421 185.085 -5.08935
-25.1284 185.21 -5.09229
-15.7284 185.277 -5.09498
-6.83099 185.93 -5.51341
-66.0257 193.926 -6.11446
-55.383 195.199 -5.08377
-45.3624 194.253 -5.08662
-34.9788 194.57 -5.0896
-23.9157 193.452 -5.09275
-15.1046 194.705 -5.09528
-6.04184 195.906 -6.67853
-65.6711 204.557 -5.77577
-55.2166 204.223 -5.08393
-46.5671 205.121 -5.08642
-34.9373 204.41 -5.08974
-24.4995 204.758 -5.09273
-14.8674 204.947 -5.09548
-5.58787 205.599 -6.79328
-66.7134 214.954 -6.36298
-56.3457 215.204 -5.08375
-45.9726 213.857 -5.0867
-36.0919 213.801 -5.08953
-26.181 215.973 -5.09239
-15.7084 214.694 -5.0953
-5.53554 215.328 -6.37904
-73.7921 225.192 -5.53022
-65.2787 222.242 -2.35162
-55.6693 222.223 -2.88924
-45.1461 222.157 -3.14685
-34.7282 222.403 -2.57912
-25.2599 223.135 -1.40963
-13.2765 222.154 -3.14917
-2.25379 222.897 -3.96768
3.68249 226.527 -3.06519
-75.8749 236.074 -4.6509
3.8759 234.615 -5.23166
-75.9085 245.077 -6.69827
3.93587 246.107 -4.8235
-75.8655 255.095 -4.08012
3.93436 255.142 -4.91549
-75.8723 264.712 -4.49263
3.94468 263.392 -4.28632
-75.8531 273.965 -3.32086
3.85122 275.118 -4.01504
-75.8725 283.462 -4.50115
3.86688 285.64 -3.49906
-74.1833 295.058 -4.49775
-65.9423 298.25 -1.67381
-54.2933 299.47 -3.25814
-45.5886 299.254 -3.05202
-35.9977 298.859 -2.6308
-24.3778 297.677 -1.3616
-15.743 298.039 -1.90464
-6.01224 298.314 -3.81173
2.60693 294.924 -4.92076
-70.1407 300.311 -9.39451
-64.7829 305.77 -5.99295
-55.0721 307.483 -5.09625
-44.3155 305.706 -5.09625
-34.723 305.426 -5.09625
-24.484 305.793 -5.09625
-13.1196 305.012 -5.03369
-5.61199 305.227 -6.23622
-65.2348 313.089 -5.83451
-54.3118 315.459 -5.09625
-43.7217 316.416 -5.09625
-32.3081 313.72 -5.09625
-25.9069 316.837 -5.09625
-16.534 315.053 -5.09625
-6.65319 314.524 -5.81432
-65.5806 325.198 -5.09625
-53.4435 324.875 -5.09625
-45.8174 324.204 -5.09625
-36.1456 324.095 -5.09625
-24.0781 325.802 -5.09625
-12.5635 325.321 -5.09625
-5.30419 323.275 -6.49326
-65.0662 335.585 -7.59331
-53.7325 335.749 -6.50634
-44.9316 333.451 -5.57229
-33.7106 335.035 -6.27734
-23.3297 335.13 -6.07821
-15.8064 334.272 -5.92286
-6.70347 334.54 -7.55243
-62.8673 341.947 -9.77617
-56.1832 340.059 -8.38683
-42.3644 341.865 -9.28446
-34.7029 343.055 -9.87607
-24.5862 341.2 -8.95415
-12.5349 340.021 -8.36802
-74.4948 224.833 1.69922
-65.2041 226.716 2.90207
-54.7367 226.435 3.10951
-43.781 226.936 2.1387
-35.3402 226.214 2.72417
-23.782 227.143 2.60206
-14.0241 227.296 2.44209
-4.16057 226.709 1.83401
-73.4244 235.95 2.36228
-64.3426 235.539 3.26699
-54.2865 235.14 3.10213
-43.9784 234.862 2.93315
-33.0527 235.95 2.75404
-23.8808 235.75 2.60368
-14.5294 234.712 2.45038
-5.42965 235.845 2.3012
0.891081 232.542 2.19758
-73.8098 246.632 2.35761
-64.0323 244.093 3.2619
-53.8655 245.96 3.09523
-45.2072 244.393 2.95329
-35.3864 245.235 2.7923
-24.5984 246.009 2.61544
-16.0273 244.779 2.47494
-5.09492 245.417 2.29572
0.845112 243.982 2.19834
-72.5702 257.096 2.89513
-65.5881 253.878 3.28741
-55.7157 255.315 3.12557
-45.1145 256.601 2.95178
-35.611 254.846 2.79598
-24.838 255.841 2.61937
-14.2229 253.34 2.44536
-4.37265 255.165 2.28388
2.34485 255.875 2.17375
-72.9798 263.175 3.20579
-65.2141 264.637 3.28128
-54.9152 266.381 3.11244
-43.6777 266.068 2.92822
-33.4362 263.696 2.76033
-23.8212 265.513 2.60271
-14.1604 265.567 2.44433
-4.88334 265.151 2.29225
-73.6473 275.301 2.42916
-66.0949 274.721 3.29572
-55.514 276.199 3.12226
-45.3642 275.216 2.95587
-33.241 275.745 2.75713
-26.3738 274.666 2.64455
-15.9163 274.906 2.47312
-4.42175 274.893 2.28468
1.65731 277.055 2.18503
-74.8454 286.429 1.95545
-65.2207 283.724 3.28139
-55.6553 285.833 3.12458
-45.1001 284.676 2.95154
-35.6968 283.942 2.79739
-24.2579 285.802 2.60987
-15.1758 285.455 2.46098
-4.25199 286.073 2.2819
1.76005 286.836 2.18335
-70.6724 294.832 2.56046
-63.5862 294.003 2.10053
-54.347 294.014 1.94772
-44.4428 293.755 2.33767
-34.1201 293.615 1.81384
-25.3854 294.096 2.4541
-14.9447 293.995 2.34481
-5.15909 293.264 2.01908
