ply
format ascii 1.0
comment Generated by Slim Ghodhbane
element vertex 177
property double x
property double y
property double z
end_header
0.857875 0.720167 -4.15586
0.54538 2.9425 -4.21676
0.5743 4.7465 -4.10929
0.688325 6.853 -4.21349
-0.925403 9.105 -4.1423
0.93229 8.84367 -4.24944
2.72588 9.8265 -4.24764
-2.36802 10.884 -4.1118
-0.886359 10.9589 -4.20639
0.549145 11.1373 -4.38946
2.98224 11.2867 -4.34201
-2.4247 12.041 -4.02028
-0.619827 12.926 -4.12383
0.546452 12.9328 -4.28475
2.97257 12.796 -4.30521
1.40435 14.484 -4.18365
2.68396 14.263 -4.09338
-2.5047 -0.0485 -2.66064
-0.742155 -0.011 -3.65642
-2.49175 1.03633 -2.44553
-0.968278 1.11 -3.44945
2.67159 0.904889 -2.79147
-2.49713 2.457 -2.06955
-1.01224 2.91567 -3.21697
1.36044 2.9685 -3.96165
2.85649 2.97817 -2.73222
-3.04352 5.39792 -2.46715
-1.07207 5.16027 -3.19905
1.51556 4.768 -3.90525
3.08293 4.8015 -2.74834
-4.52476 7.0239 -2.68598
-2.89261 6.93022 -3.45598
-0.893094 6.85331 -3.75208
1.73077 6.86425 -3.9208
3.26192 6.7486 -2.90226
4.12046 7.175 -2.07051
-4.73947 9.0138 -2.60551
-3.24134 9.14137 -3.77917
3.02499 8.487 -3.83315
4.71046 8.996 -2.88894
-4.38437 11.2159 -2.55423
-3.24359 11.3983 -3.69639
5.39759 11.2168 -3.20225
-4.11253 12.9598 -2.29815
-3.43931 12.7414 -3.2356
-1.5059 13.1675 -3.96668
5.20336 12.8443 -3.33096
-3.03817 14.8008 -2.67132
-1.19742 15.136 -3.42344
0.798388 15.575 -3.4106
2.84751 15.499 -3.28817
4.4683 14.7138 -2.95019
-0.907433 16.6513 -2.07684
1.65737 16.679 -2.09999
2.92019 16.284 -2.10689
-4.44148 -0.03825 -0.39053
-3.49625 -0.0405 -1.76376
-4.43396 1.35137 -0.381961
-3.37989 1.243 -1.70205
3.37362 0.999583 -0.920142
-4.4183 3.282 -0.353588
-3.02419 3.1514 -1.70084
3.59556 2.98887 -0.876321
-6.20123 5.78014 -0.600283
-5.05733 4.92655 -0.413227
-3.11438 4.43825 -1.68026
3.86496 4.63467 -1.00974
4.04256 5.1985 -0.445555
-6.41885 6.83649 -0.695452
-5.79641 7.23917 -1.60807
4.38074 6.72794 -0.871428
-6.42706 8.84982 -0.653494
-5.82801 9.04419 -1.43739
5.49647 8.8148 -1.30187
6.00174 9.46 -0.80636
-6.58868 10.7587 -0.398483
-5.25058 11.2592 -1.24387
6.45927 11.2068 -1.29151
-4.53474 12.9242 -1.06942
5.90316 13.931 -1.89243
6.36057 13.1153 -1.24566
-4.31624 14.3947 -0.923789
-3.65908 15.3707 -1.02246
4.92601 15.3678 -1.29602
-2.50788 16.3722 -1.11648
-1.00082 16.9732 -1.30352
1.67444 16.96 -1.34066
2.90996 16.5655 -1.28434
-4.45081 -0.0392 0.289076
-3.51453 -0.0405 1.72705
-4.44484 1.3505 0.278683
-3.39753 1.243 1.66656
3.3304 0.997778 1.20325
-4.42434 3.19778 0.3158
-3.04184 3.1514 1.66908
3.55295 2.98933 1.15449
-6.20718 5.78014 0.535311
-5.0917 4.96091 0.454388
-3.13181 4.43825 1.64755
3.86574 4.779 1.15414
-6.43548 6.83704 0.579123
-5.7402 7.11083 1.65645
4.33724 6.72917 1.17775
-6.40295 8.82496 0.649503
-5.82958 9.02946 1.4044
5.54282 8.84257 1.11103
6.07507 9.457 0.07384
-6.6573 10.8893 0.325507
-5.26332 11.2592 1.18882
6.4862 11.2096 1.02921
-4.60272 12.9393 0.948164
5.88302 13.931 1.95414
6.38562 13.1407 0.968436
-4.33942 14.4097 0.697864
-3.69034 15.4043 0.76118
5.02291 15.3488 0.959002
-2.58183 16.3932 0.741205
-0.876496 17.0182 1.20586
1.67982 17.006 1.00561
2.88872 16.628 0.957497
4.42728 16.031 0.17675
-2.53242 -0.0485 2.63426
-0.780405 -0.011 3.64845
-2.51723 1.03633 2.4193
-1.00435 1.11 3.43912
2.64222 0.904889 2.81929
-2.51867 2.457 2.04328
-1.04587 2.91567 3.20619
1.31888 2.9685 3.97569
2.82772 2.97817 2.76198
-3.06919 5.39792 2.43514
-1.10551 5.16027 3.18765
1.47458 4.768 3.92092
3.05398 4.8015 2.78048
-4.43935 7.09167 2.71238
-2.92864 6.93022 3.4255
-0.932337 6.85331 3.74252
1.68962 6.86425 3.93871
3.29939 6.76209 2.85812
4.21727 7.453 2.15042
-4.76649 9.0138 2.55573
-3.28073 9.14138 3.74502
-1.78156 8.46 3.98844
2.98469 8.487 3.86462
4.67995 8.996 2.93811
-4.41087 11.2159 2.50817
-3.28213 11.3983 3.66222
5.36376 11.2167 3.2586
-4.12698 12.9848 2.2607
-3.4261 12.7037 3.24986
-1.54735 13.1675 3.95069
5.55569 12.684 3.1706
-3.06598 14.8008 2.63936
-1.08073 15.243 3.38097
1.02129 15.436 3.50077
2.81291 15.499 3.3178
4.5332 14.777 2.83613
-0.929133 16.6513 2.06722
1.63529 16.679 2.11723
2.89796 16.284 2.13736
0.814307 0.720167 4.16462
0.50119 2.9425 4.22225
0.531245 4.7465 4.11508
0.644162 6.853 4.22046
-0.774997 9.21756 4.15729
1.35058 8.529 4.28214
2.68126 9.8265 4.27596
-2.41095 10.884 4.08678
-0.83745 10.953 4.20332
0.604028 11.1848 4.42171
2.93661 11.2868 4.373
-0.662977 12.926 4.11712
0.501552 12.9328 4.29024
2.92733 12.796 4.33609
4.00569 13.325 4.02924
1.36047 14.484 4.19813
2.64095 14.263 4.12126
