ply
format ascii 1.0
comment Generated by Slim Ghodhbane
element vertex 856
property double x
property double y
property double z
end_header
1.7017e-06 16.8557 -53.7243
1.57917e-06 20.9669 -52.6183
-13.9049 16.8557 -51.8936
13.9049 16.8557 -51.8936
1.42943e-06 9.45566 -50.9599
-13.6186 20.9669 -50.8257
13.6186 20.9669 -50.8257
1.3069e-06 8.63345 -49.8539
1.3069e-06 9.45566 -49.8539
-13.1894 9.45566 -49.2233
13.1894 9.45566 -49.2233
-12.9031 8.63345 -48.1554
12.9032 8.63345 -48.1554
-12.9031 9.45566 -48.1554
12.9032 9.45566 -48.1554
1.08909e-06 0 -47.6426
1.08909e-06 1.64446 -47.6426
9.52951e-07 7.8112 -46.5366
-26.8621 16.8557 -46.5267
26.8621 16.8557 -46.5267
-12.3308 0 -46.0192
12.3308 0 -46.0192
-12.3308 1.64446 -46.0192
12.3308 1.64446 -46.0192
-26.3092 20.9669 -45.569
26.3092 20.9669 -45.569
-12.0446 7.8112 -44.9509
12.0446 7.8112 -44.9509
-25.4799 9.45566 -44.1324
25.4799 9.45566 -44.1324
-24.927 8.63345 -43.1747
24.927 8.63345 -43.1747
-24.927 9.45566 -43.1747
24.927 9.45566 -43.1747
-23.8212 0 -41.2597
23.8213 0 -41.2597
-23.8212 1.64446 -41.2597
23.8213 1.64446 -41.2597
2.04204e-06 32.0671 -40.5654
-23.2684 7.8112 -40.3019
23.2684 7.8112 -40.3019
2.08288e-06 23.0225 -39.3492
-10.4991 32.0671 -39.1833
10.4992 32.0671 -39.1833
-10.1843 23.0225 -38.0084
10.1843 23.0225 -38.0084
-37.9888 16.8557 -37.9888
37.9888 16.8557 -37.9888
-37.2068 20.9669 -37.2068
37.2069 20.9669 -37.2068
-36.034 9.45566 -36.034
36.034 9.45566 -36.034
-35.2521 8.63345 -35.2521
35.2521 8.63345 -35.2521
-35.2521 9.45566 -35.2521
35.2521 9.45566 -35.2521
-20.2828 32.0671 -35.1308
20.2828 32.0671 -35.1308
-19.6746 23.0225 -34.0774
19.6746 23.0225 -34.0774
-33.6883 0 -33.6883
33.6883 0 -33.6883
-33.6883 1.64446 -33.6883
33.6883 1.64446 -33.6883
-32.9064 7.8112 -32.9064
32.9064 7.8112 -32.9064
-28.6842 32.0671 -28.6842
28.6842 32.0671 -28.6841
-27.8241 23.0225 -27.8241
27.8241 23.0225 -27.8241
-46.5267 16.8557 -26.8621
46.5267 16.8557 -26.8621
-45.569 20.9669 -26.3092
45.569 20.9669 -26.3092
-44.1324 9.45566 -25.4799
44.1324 9.45566 -25.4799
-43.1747 8.63345 -24.927
43.1747 8.63345 -24.927
-43.1747 9.45566 -24.927
43.1747 9.45566 -24.927
-41.2597 0 -23.8213
41.2597 0 -23.8212
-41.2597 1.64446 -23.8213
41.2597 1.64446 -23.8212
-0.0335451 255.373 -23.8609
-40.3019 7.8112 -23.2684
40.3019 7.8112 -23.2683
-6.18241 255.373 -23.049
6.11531 255.373 -23.049
-0.0335451 249.306 -22.7986
-0.0335451 259.418 -22.7986
-5.90829 249.306 -22.0227
5.84119 249.306 -22.0227
-5.90829 259.418 -22.0227
5.84119 259.418 -22.0227
1.89229e-06 35.6849 -21.104
-11.9122 255.373 -20.6682
11.8452 255.373 -20.6682
-35.1308 32.0671 -20.2828
35.1308 32.0671 -20.2828
-5.4621 35.6849 -20.3849
5.4621 35.6849 -20.3849
-34.0774 23.0225 -19.6746
34.0774 23.0225 -19.6746
-11.3827 249.306 -19.7482
11.3156 249.306 -19.7482
-11.3827 259.418 -19.7482
11.3156 259.418 -19.7482
1.71531e-06 35.9773 -19.1854
1.71531e-06 39.2661 -19.1854
-0.0335452 241.217 -19.0802
-4.96556 35.9773 -18.5317
4.96556 35.9773 -18.5317
-4.96556 39.2661 -18.5317
4.96556 39.2661 -18.5317
-10.552 35.6849 -18.2766
10.552 35.6849 -18.2766
-4.9489 241.217 -18.4311
4.8818 241.217 -18.4311
-9.59272 35.9773 -16.6151
9.59272 35.9773 -16.6151
-9.59272 39.2661 -16.6151
9.59272 39.2661 -16.6151
-9.52924 241.217 -16.528
9.46218 241.217 -16.528
-16.8326 255.373 -16.881
16.7655 255.373 -16.881
-16.0837 249.306 -16.1298
16.0166 249.306 -16.1298
-16.0837 259.418 -16.1298
16.0166 259.418 -16.1298
-0.403374 263.11 -15.3619
-14.9228 35.6849 -14.9228
14.9228 35.6849 -14.9228
-4.35929 263.11 -14.8395
3.55256 263.11 -14.8395
-51.8936 16.8557 -13.9049
51.8936 16.8557 -13.9049
-50.8257 20.9669 -13.6186
50.8257 20.9669 -13.6186
-13.5661 35.9773 -13.5661
13.5661 35.9773 -13.5661
-13.5661 39.2661 -13.5661
-0.0335454 39.3073 -13.7339
13.5661 39.2661 -13.5661
-13.4625 241.217 -13.5005
13.3954 241.217 -13.5005
-49.2233 9.45566 -13.1894
49.2233 9.45566 -13.1894
-3.58037 39.3073 -13.2669
3.51328 39.3073 -13.2669
-8.04563 263.11 -13.3078
7.2389 263.11 -13.3078
-48.1554 8.63345 -12.9032
48.1554 8.63345 -12.9031
-48.1554 9.45566 -12.9032
48.1554 9.45566 -12.9031
-46.0192 0 -12.3308
46.0192 0 -12.3308
-46.0192 1.64446 -12.3308
46.0192 1.64446 -12.3308
-44.9509 7.8112 -12.0446
44.9509 7.8112 -12.0446
-3.24933 64.7757 -12.0315
-0.0335454 64.7757 -12.4549
3.18224 64.7757 -12.0315
-6.88548 39.3073 -11.8979
6.81838 39.3073 -11.8979
-3.19719 70.8278 -11.8369
-0.0335494 92.7833 -11.5225
-20.608 255.373 -11.9455
20.541 255.373 -11.9455
-0.403374 269.672 -11.6435
-1.3104 103.199 -11.0077
-0.0335453 103.199 -11.1758
-2.99841 232.623 -11.095
-0.0335451 232.623 -11.4854
2.93132 232.623 -11.095
-2.99841 238.69 -11.095
-0.0335451 238.69 -11.4854
2.93132 238.69 -11.095
-19.6908 249.306 -11.4143
19.6238 249.306 -11.4143
-19.6908 259.418 -11.4143
19.6238 259.418 -11.4143
-3.3999 269.672 -11.2478
2.59315 269.672 -11.2478
-18.2766 35.6849 -10.552
18.2766 35.6849 -10.552
-6.24597 64.7757 -10.7902
6.1789 64.7757 -10.7902
2.89303 98.3447 -10.9521
-3.35898 103.199 -10.6135
-2.9183 103.199 -10.796
-0.0335451 219.478 -10.5639
-0.0335451 232.623 -10.5639
-11.2112 263.11 -10.8713
10.4045 263.11 -10.8713
-38.0084 23.0225 -10.1843
38.0084 23.0225 -10.1843
-39.1833 32.0671 -10.4992
39.1833 32.0671 -10.4991
-2.75992 219.478 -10.205
2.69283 219.478 -10.205
-2.75992 232.623 -10.205
2.69283 232.623 -10.205
-6.19221 269.672 -10.0876
5.38547 269.672 -10.0876
-16.6151 35.9773 -9.59272
16.6151 35.9773 -9.59272
-16.6151 39.2661 -9.59272
-9.72365 39.3073 -9.7201
9.65658 39.3073 -9.7201
16.6151 39.2661 -9.59272
5.0987 103.199 -9.86511
5.53938 103.199 -9.68256
-0.0335453 141.621 -9.89681
-5.76124 232.623 -9.95064
5.69414 232.623 -9.95064
-5.76124 238.69 -9.95064
5.69414 238.69 -9.95064
-16.4806 241.217 -9.55513
16.4135 241.217 -9.55509
6.1827 103.199 -9.18892
-5.30049 219.478 -9.15264
5.23339 219.478 -9.15264
-5.30049 232.623 -9.15264
5.23339 232.623 -9.15264
-8.81923 64.7757 -8.81569
8.75217 64.7757 -8.81569
-4.96694 141.621 -8.57489
4.0185 141.621 -8.93998
4.89986 141.621 -8.57489
-2.25622 180.044 -8.32516
1.24331 180.044 -8.44968
2.18913 180.044 -8.32516
2.9383 180.044 -8.01484
-8.1337 232.623 -8.13016
8.06664 232.623 -8.13019
-8.1337 238.69 -8.13016
8.06664 238.69 -8.13019
-8.59003 269.672 -8.24201
7.78329 269.672 -8.24201
7.87172 102.18 -7.93525
-7.91482 103.199 -7.91128
-5.72378 141.621 -7.99414
6.18649 141.621 -7.58761
-3.13759 180.044 -7.96007
3.81966 180.044 -7.64976
-13.6402 263.11 -7.69594
12.8335 263.11 -7.69594
-2.41426 269.672 -7.53475
-0.403374 269.672 -7.7995
1.60752 269.672 -7.53475
8.34138 103.199 -7.26796
-7.01042 141.621 -7.00687
6.94333 141.621 -7.00687
-4.70585 180.044 -7.17684
-4.32743 180.044 -7.46722
4.26034 180.044 -7.46722
-1.92519 218.467 -7.08971
-0.0335452 218.467 -7.33875
1.8581 218.467 -7.08971
-7.48214 219.478 -7.47859
7.41504 219.478 -7.47859
-7.48214 232.623 -7.47859
7.41504 232.623 -7.47859
-11.9014 39.3073 -6.88193
11.8344 39.3073 -6.88193
-8.69883 103.199 -6.88954
-5.46269 180.044 -6.5961
4.90366 180.044 -6.97357
-4.28811 269.672 -6.75856
3.48136 269.672 -6.75856
-10.7938 64.7757 -6.24242
10.7267 64.7757 -6.24242
-6.106 180.044 -6.10246
5.6605 180.044 -6.39284
6.03891 180.044 -6.10246
-3.68792 218.467 -6.35954
3.62082 218.467 -6.35954
-22.9814 255.373 -6.19789
22.9143 255.373 -6.19793
-9.68611 103.199 -5.60291
9.32864 103.199 -5.98132
9.61902 103.199 -5.60291
7.23157 160.833 -5.58969
-9.95419 232.623 -5.75769
9.88709 232.623 -5.75769
-9.95419 238.69 -5.75769
9.88709 238.69 -5.75769
-21.9584 249.306 -5.92293
21.8913 249.306 -5.92293
-21.9584 259.418 -5.92293
21.8913 259.418 -5.92293
-10.43 269.672 -5.83676
-5.89723 269.672 -5.52383
5.09046 269.672 -5.52387
9.62318 269.672 -5.83676
-20.3849 35.6849 -5.4621
20.3849 35.6849 -5.4621
-9.86866 103.199 -5.16222
-5.2016 218.467 -5.19805
5.1345 218.467 -5.19805
-9.15619 219.478 -5.29695
9.08908 219.478 -5.29695
-9.15619 232.623 -5.29695
9.08908 232.623 -5.29695
-1.81802 282.799 -5.30953
-0.403374 282.799 -5.49577
1.01128 282.799 -5.30953
-18.5317 35.9773 -4.96556
18.5317 35.9773 -4.96556
-18.5317 39.2661 -4.96556
18.5317 39.2661 -4.96556
-8.62046 140.164 -4.98766
8.51135 141.621 -4.96339
7.11331 180.044 -4.7023
-18.3779 241.217 -4.96057
18.3108 241.217 -4.96057
-3.13627 282.799 -4.7635
2.32952 282.799 -4.7635
-8.94352 141.621 -4.08203
7.40369 180.044 -4.32388
14.0507 0 -3.80387
-13.2705 39.3073 -3.57683
13.2034 39.3073 -3.57683
7.714 180.044 -3.57472
-6.36308 218.467 -3.68438
6.29602 218.467 -3.68437
-15.1671 263.11 -3.99817
14.3604 263.11 -3.99817
-7.13192 269.672 -3.91475
6.32519 269.672 -3.91475
-4.26829 282.799 -3.89489
-1.34103 282.799 -3.52939
-0.403374 282.799 -3.65284
0.534289 282.799 -3.52939
3.46152 282.799 -3.89489
-1.34103 323.244 -3.52939
-0.403374 323.244 -3.65284
0.534289 323.244 -3.52939
-12.035 64.7757 -3.24579
11.9679 64.7757 -3.24579
9.13198 141.621 -3.46508
-8.01839 180.044 -3.00184
-11.5866 269.672 -3.0358
10.7798 269.672 -3.0358
-2.21479 282.799 -3.16747
1.40805 282.799 -3.16747
-2.21479 323.244 -3.16747
1.40805 323.244 -3.16747
-11.0994 93.873 -2.9951
9.49705 141.621 -2.58372
8.07907 180.044 -2.69336
-10.2085 219.478 -2.75638
10.1414 219.478 -2.75638
-11.0986 232.623 -2.99487
-10.2085 232.623 -2.75638
10.1414 232.623 -2.75638
11.0315 232.623 -2.99487
-11.0986 238.69 -2.99487
11.0315 238.69 -2.99487
-5.1369 282.799 -2.7629
-2.96511 282.799 -2.59173
2.15836 282.799 -2.59173
4.33013 282.799 -2.76289
-2.96511 323.244 -2.59173
2.15836 323.244 -2.59173
10.8383 103.199 -2.11081
-8.3287 180.044 -2.25268
8.2616 180.044 -2.25268
-7.90811 269.672 -2.04089
7.10138 269.672 -2.04089
-2.63822 322.819 -2.30815
1.78465 322.819 -2.30815
-2.63822 324.83 -2.30815
1.78465 324.83 -2.30815
-7.09326 218.467 -1.92164
7.02616 218.467 -1.92164
-3.54084 282.799 -1.84142
2.7341 282.799 -1.84142
-3.54084 323.244 -1.84142
2.7341 323.244 -1.84142
-1.83373 324.83 -1.50365
0.980157 324.83 -1.50365
-1.83373 365.055 -1.50365
0.980157 365.055 -1.50365
-8.45322 180.044 -1.30686
-5.68293 282.799 -1.44465
4.87616 282.799 -1.44465
-1.43148 365.055 -1.1014
0.577908 365.055 -1.1014
11.05 103.199 -0.502912
-3.90278 282.799 -0.967663
3.09602 282.799 -0.967656
-3.90278 323.244 -0.967663
3.09602 323.244 -0.967656
47.6426 0 -8.71271e-07
47.6426 1.64446 -8.71271e-07
46.5366 7.8112 -8.71271e-07
-49.8539 8.63345 -2.60061e-14
49.8539 8.63345 -8.71271e-07
-50.9599 9.45566 -2.60061e-14
-49.8539 9.45566 -2.60061e-14
49.8539 9.45566 -8.71271e-07
50.9599 9.45566 -8.71271e-07
-53.7243 16.8557 -2.60061e-14
53.7243 16.8557 -2.60061e-14
-52.6183 20.9669 -2.60061e-14
52.6183 20.9669 -2.60061e-14
-39.3492 23.0225 -2.60061e-14
-40.5654 32.0671 -2.60061e-14
-21.104 35.6849 -2.60061e-14
-19.1854 35.9773 -2.60061e-14
-19.1854 39.2661 -2.60061e-14
-13.7374 39.3073 -0.0300004
13.6703 39.3073 -0.0300013
-12.4584 64.7757 -0.0300004
12.3913 64.7757 -0.0300013
-11.1794 103.199 -0.0300004
10.8925 109.802 -0.0300103
-9.90035 141.621 -0.0300004
-8.62132 180.044 -0.0300004
-7.3423 218.467 -0.0300004
7.2752 218.467 -0.0299896
-10.5674 219.478 -0.0300004
10.5004 219.478 -0.0300013
-11.4889 232.623 -0.0300004
-10.5674 232.623 -0.0300004
10.5004 232.623 -0.0300013
11.4218 232.623 -0.0300013
-11.4889 238.69 -0.0300004
11.4218 238.69 -0.0300013
-19.025 241.217 -0.0299996
18.9579 241.217 -0.0300022
-22.7318 249.306 -0.0299987
22.6648 249.306 -0.030003
-23.791 255.373 -0.0299987
23.7239 255.373 -0.030003
-22.7318 259.418 -0.0299987
22.6648 259.418 -0.030003
-15.6879 263.11 -0.0299996
14.8812 263.11 -0.030003
-11.981 269.672 -0.0300004
-8.17286 269.672 -0.0300013
7.36609 269.672 -0.0300022
11.1743 269.672 -0.030003
-5.86917 282.799 -0.0300013
-4.02619 282.799 -0.0300013
3.21946 282.799 -0.030003
5.0624 282.799 -0.030003
-4.02619 323.244 -0.0300013
3.21946 323.244 -0.030003
-0.626987 405.28 -0.29691
-0.226586 405.28 -0.29691
-47.6426 0 8.71271e-07
0 0 0
-47.6426 1.64446 8.71271e-07
-46.5366 7.8112 8.71271e-07
39.3492 23.0225 8.71271e-07
40.5654 32.0671 8.71271e-07
19.1854 35.9773 1.74254e-06
21.104 35.6849 1.74254e-06
19.1854 39.2661 1.74254e-06
-0.626987 405.28 0.103489
-0.226586 405.28 0.103489
-3.90278 282.799 0.907662
3.09602 282.799 0.907658
-3.90278 323.244 0.907662
3.09602 323.244 0.907658
-1.43148 365.055 0.907982
0.577908 365.055 0.907982
-5.68293 282.799 1.38465
4.87616 282.799 1.38465
-1.83373 324.83 1.31023
0.980157 324.83 1.31023
-1.83373 365.055 1.31023
0.980157 365.055 1.31023
10.9006 103.199 1.57789
-7.09326 218.467 1.86163
7.02616 218.467 1.86164
-7.90811 269.672 1.98089
7.10138 269.672 1.98089
-3.54084 282.799 1.78142
2.7341 282.799 1.78142
-3.54084 323.244 1.78142
2.7341 323.244 1.78142
8.2616 180.044 2.19268
-7.66028 200.832 2.01357
-2.63822 322.819 2.11473
1.78465 322.819 2.11473
-2.63822 324.83 2.11473
1.78465 324.83 2.11473
-10.8283 102.306 2.86243
10.6418 106.02 2.83045
8.07907 180.044 2.63336
-10.2085 219.478 2.69637
10.1414 219.478 2.69637
-11.0986 232.623 2.93487
-10.2085 232.623 2.69637
10.1414 232.623 2.69637
11.0315 232.623 2.93487
-11.0986 238.69 2.93487
11.0315 238.69 2.93487
-11.5866 269.672 2.9758
10.7798 269.672 2.9758
-5.1369 282.799 2.70289
-2.96511 282.799 2.53173
2.15836 282.799 2.53173
4.33013 282.799 2.70289
-2.96511 323.244 2.53173
2.15836 323.244 2.53173
-12.035 64.7757 3.18579
11.9679 64.7757 3.18579
9.13198 141.621 3.40508
-7.96362 180.044 3.07404
-2.21479 282.799 3.10747
-1.34103 282.799 3.46939
0.534289 282.799 3.46939
1.40805 282.799 3.10746
-2.21479 323.244 3.10747
-1.34103 323.244 3.46939
0.534289 323.244 3.46939
1.40805 323.244 3.10746
-13.2705 39.3073 3.51682
13.2034 39.3073 3.51682
6.50486 211.223 3.74495
-6.36308 218.467 3.62437
6.29602 218.467 3.62437
-15.1671 263.11 3.9382
14.3604 263.11 3.93816
-7.13192 269.672 3.85474
6.32519 269.672 3.85474
-4.26825 282.799 3.83488
-0.40337 282.799 3.59283
3.46152 282.799 3.83488
-0.40337 323.244 3.59283
-7.47076 180.044 4.26388
-18.5317 35.9773 4.96556
18.5317 35.9773 4.96556
-18.5317 39.2661 4.96556
18.5317 39.2661 4.96556
-8.57843 141.621 4.90339
8.51135 141.621 4.90339
-7.18039 180.044 4.6423
-18.3778 241.217 4.90056
18.3108 241.217 4.90056
-3.13627 282.799 4.70353
2.32952 282.799 4.70353
-20.3849 35.6849 5.4621
20.3849 35.6849 5.4621
-6.59965 180.044 5.39913
-5.2016 218.467 5.13804
5.13453 218.467 5.13804
-9.15619 219.478 5.23694
9.08908 219.478 5.23694
-9.15619 232.623 5.23694
9.08908 232.623 5.23694
-5.89723 269.672 5.46386
5.09046 269.672 5.46386
-1.81802 282.799 5.24956
-0.40337 282.799 5.4358
1.01128 282.799 5.24956
-9.68611 103.199 5.5429
-9.39574 103.199 5.92132
9.61902 103.199 5.5429
-7.99769 141.621 5.66022
-9.95419 232.623 5.69768
9.88709 232.623 5.69768
-9.95419 238.69 5.69768
9.88709 238.69 5.69768
-21.9584 249.306 5.86296
21.8913 249.306 5.86292
-21.9584 259.418 5.86296
21.8913 259.418 5.86292
-10.43 269.672 5.77675
9.62318 269.672 5.77675
-10.7938 64.7757 6.18241
10.7267 64.7757 6.18241
9.12539 103.199 6.18622
-6.106 180.044 6.04245
6.03894 180.044 6.04245
-3.68792 218.467 6.29956
3.62083 218.467 6.29957
-22.9814 255.373 6.13792
22.9143 255.373 6.13792
-11.9014 39.3073 6.82192
11.8344 39.3073 6.82192
-7.01042 141.621 6.94686
5.39563 180.044 6.53609
-4.28811 269.672 6.69855
3.48137 269.672 6.69855
-8.40846 103.199 7.20795
4.26035 180.044 7.40724
4.63877 180.044 7.11685
-1.92519 218.467 7.02971
-0.0335439 218.467 7.27874
1.8581 218.467 7.02971
-7.48214 219.478 7.41859
7.41504 219.478 7.41859
-7.48214 232.623 7.41859
7.41504 232.623 7.41859
-2.41426 269.672 7.47474
1.60752 269.672 7.47474
-7.91482 103.199 7.85127
7.74361 107.624 7.7471
3.51118 180.044 7.71755
-13.6402 263.11 7.63594
12.8335 263.11 7.63594
-0.40337 269.672 7.73948
-6.57333 122.41 8.08146
-2.27993 177.292 8.35364
-1.78331 180.044 8.32741
-0.837491 180.044 8.45193
0.439367 180.044 8.49551
1.38519 180.044 8.371
2.18913 180.044 8.26515
2.62982 180.044 8.08261
-8.1337 232.623 8.07018
8.06664 232.623 8.07018
-8.1337 238.69 8.07018
8.06664 238.69 8.07018
-8.59003 269.672 8.182
7.78329 269.672 8.182
-8.81923 64.7757 8.75568
8.75217 64.7757 8.75568
5.16928 125.434 8.98157
-4.96694 141.621 8.5149
-0.0335437 180.044 8.55777
-5.30049 219.478 9.09263
5.23339 219.478 9.09263
-5.30049 232.623 9.09263
5.23339 232.623 9.09263
-16.4806 241.217 9.49512
16.4135 241.217 9.49512
-16.6151 35.9773 9.59272
16.6151 35.9773 9.59272
-16.6151 39.2661 9.59272
-9.72365 39.3073 9.66009
9.65658 39.3073 9.66009
16.6151 39.2661 9.59272
5.70942 92.9821 9.91709
-5.60645 103.199 9.62257
-1.64144 141.621 9.62511
-0.0335435 141.621 9.8368
2.52017 141.621 9.50059
-5.76124 232.623 9.89063
5.69414 232.623 9.89063
-5.76124 238.69 9.89063
5.69414 238.69 9.89063
-38.0084 23.0225 10.1843
38.0084 23.0225 10.1843
-39.1833 32.0671 10.4992
39.1833 32.0671 10.4992
1.0778 122.41 10.33
-2.75992 219.478 10.145
2.69283 219.478 10.145
-2.75992 232.623 10.145
2.69283 232.623 10.145
-6.19221 269.672 10.0276
5.38547 269.672 10.0276
-18.2766 35.6849 10.552
18.2766 35.6849 10.552
-6.24596 64.7757 10.7302
6.1789 64.7757 10.7302
2.85121 103.199 10.736
-2.85519 110.523 10.5005
-0.0335435 219.478 10.5039
-0.0335435 232.623 10.5039
-11.2112 263.11 10.8113
10.4045 263.11 10.8113
-0.0335434 103.199 11.1158
-2.99841 232.623 11.035
-0.0335435 232.623 11.4254
2.93132 232.623 11.035
-2.99841 238.69 11.035
-0.0335435 238.69 11.4254
2.93132 238.69 11.035
-19.6908 249.306 11.3543
19.6238 249.306 11.3543
-19.6908 259.418 11.3543
19.6238 259.418 11.3543
-3.3999 269.672 11.1878
2.59315 269.672 11.1878
-6.88548 39.3073 11.8379
6.81842 39.3073 11.8379
-3.24933 64.7757 11.9715
3.18224 64.7757 11.9715
-20.608 255.373 11.8855
20.541 255.373 11.8855
-0.40337 269.672 11.5835
-46.0192 0 12.3308
46.0192 0 12.3308
-46.0192 1.64446 12.3308
46.0192 1.64446 12.3308
-44.9509 7.8112 12.0446
44.9509 7.8112 12.0446
-0.0335432 64.7757 12.3949
-48.1554 8.63345 12.9031
48.1554 8.63345 12.9032
-48.1554 9.45566 12.9031
48.1554 9.45566 12.9032
-49.2233 9.45566 13.1894
49.2233 9.45566 13.1894
-3.58037 39.3073 13.2069
3.51328 39.3073 13.2069
-13.4625 241.217 13.4405
13.3954 241.217 13.4405
-8.04563 263.11 13.2478
7.2389 263.11 13.2478
-51.8936 16.8557 13.9049
51.8936 16.8557 13.9049
-50.8257 20.9669 13.6186
50.8257 20.9669 13.6186
-13.5661 35.9773 13.5661
13.5661 35.9773 13.5661
-13.5661 39.2661 13.5661
-0.033543 39.3073 13.6739
13.5661 39.2661 13.5661
-14.9228 35.6849 14.9228
14.9228 35.6849 14.9228
-4.35929 263.11 14.7795
3.55256 263.11 14.7795
-0.40337 263.11 15.3019
-9.52924 241.217 16.468
9.46218 241.217 16.468
-16.0837 249.306 16.0698
16.0166 249.306 16.0698
-16.0837 259.418 16.0698
16.0166 259.418 16.0698
-9.59272 35.9773 16.6151
9.59272 35.9773 16.6151
-9.59272 39.2661 16.6151
9.59272 39.2661 16.6151
-16.8326 255.373 16.821
16.7655 255.373 16.821
-10.552 35.6849 18.2766
10.552 35.6849 18.2766
-4.9489 241.217 18.3711
4.8818 241.217 18.3711
-4.96556 35.9773 18.5317
4.96556 35.9773 18.5317
-4.96556 39.2661 18.5317
4.96556 39.2661 18.5317
-1.64724e-06 35.9773 19.1854
-1.64724e-06 39.2661 19.1854
-0.0335427 241.217 19.0202
-34.0774 23.0225 19.6746
34.0774 23.0225 19.6746
-11.3827 249.306 19.6882
11.3156 249.306 19.6882
-11.3827 259.418 19.6882
11.3156 259.418 19.6882
-35.1308 32.0671 20.2828
35.1308 32.0671 20.2828
-5.4621 35.6849 20.3849
5.4621 35.6849 20.3849
-11.9122 255.373 20.6082
11.8452 255.373 20.6082
-1.79699e-06 35.6849 21.104
-5.90829 249.306 21.9628
5.84123 249.306 21.9628
-5.90829 259.418 21.9628
5.84123 259.418 21.9628
-0.0335419 249.306 22.7386
-6.18241 255.373 22.9889
6.11531 255.373 22.9889
-0.0335419 259.418 22.7386
-40.3019 7.8112 23.2684
40.3019 7.8112 23.2684
-41.2597 0 23.8212
41.2597 0 23.8212
-41.2597 1.64446 23.8212
41.2597 1.64446 23.8212
-0.0335417 255.373 23.8009
-43.1747 8.63345 24.927
43.1747 8.63345 24.927
-43.1747 9.45566 24.927
43.1747 9.45566 24.927
-44.1324 9.45566 25.4799
44.1324 9.45566 25.4799
-45.569 20.9669 26.3092
45.569 20.9669 26.3092
-46.5267 16.8557 26.8621
46.5267 16.8557 26.8621
-27.8241 23.0225 27.8241
27.8241 23.0225 27.8241
-28.6842 32.0671 28.6842
28.6842 32.0671 28.6842
-32.9064 7.8112 32.9064
32.9064 7.8112 32.9064
-33.6883 0 33.6883
33.6883 0 33.6883
-33.6883 1.64446 33.6883
33.6883 1.64446 33.6883
-19.6746 23.0225 34.0774
19.6746 23.0225 34.0774
-35.2521 8.63345 35.2521
35.2521 8.63345 35.2521
-35.2521 9.45566 35.2521
35.2521 9.45566 35.2521
-20.2828 32.0671 35.1308
20.2828 32.0671 35.1308
-36.034 9.45566 36.034
36.034 9.45566 36.034
-37.2068 20.9669 37.2068
37.2068 20.9669 37.2068
-37.9888 16.8557 37.9888
37.9888 16.8557 37.9888
-10.1843 23.0225 38.0084
10.1843 23.0225 38.0084
-1.96036e-06 23.0225 39.3492
-10.4992 32.0671 39.1833
10.4991 32.0671 39.1833
-23.2684 7.8112 40.3019
23.2684 7.8112 40.3019
-1.94674e-06 32.0671 40.5654
-23.8213 0 41.2597
23.8212 0 41.2597
-23.8213 1.64446 41.2597
23.8212 1.64446 41.2597
-24.927 8.63345 43.1747
24.927 8.63345 43.1747
-24.927 9.45566 43.1747
24.927 9.45566 43.1747
-25.4799 9.45566 44.1324
25.4799 9.45566 44.1324
-12.0446 7.8112 44.9509
12.0446 7.8112 44.9509
-26.3092 20.9669 45.569
26.3092 20.9669 45.569
-12.3308 0 46.0192
12.3308 0 46.0192
-12.3308 1.64446 46.0192
12.3308 1.64446 46.0192
-9.39336e-07 7.8112 46.5366
-26.8621 16.8557 46.5267
26.8621 16.8557 46.5267
-1.08909e-06 0 47.6426
-1.08909e-06 1.64446 47.6426
-12.9032 8.63345 48.1554
12.9031 8.63345 48.1554
-12.9032 9.45566 48.1554
12.9031 9.45566 48.1554
-13.1894 9.45566 49.2233
13.1894 9.45566 49.2233
-1.41581e-06 8.63345 49.8539
-1.41581e-06 9.45566 49.8539
-1.56556e-06 9.45566 50.9599
-13.6186 20.9669 50.8257
13.6186 20.9669 50.8257
-13.9049 16.8557 51.8936
13.9049 16.8557 51.8936
-1.75615e-06 20.9669 52.6183
-1.9059e-06 16.8557 53.7243
