ply
format ascii 1.0
comment Generated by Slim Ghodhbane
element vertex 2082
property double x
property double y
property double z
end_header
58.5225 194.75 5.30441
58.5225 198.25 5.30441
58.5225 201.75 5.30441
58.5225 205.25 5.30441
43.0961 207 5.88754
19.7106 193 6.81512
25.6604 193 6.18934
33.636 193 6.33447
47.8358 207 6.87128
16.6717 193 7.67528
19.1573 193 7.31884
20.675 193 7.50878
21.1715 193 7.80147
32.9505 193 7.45569
42.5069 193 7.75066
46.108 193 7.43053
49.7091 193 7.1104
52.2444 193 7.68653
16.6717 196.5 7.67528
16.6717 200 7.67528
16.6717 203.5 7.67528
16.6717 207 7.67528
21.9176 207 7.60166
27.1635 207 7.52804
32.4094 207 7.45441
52.5754 207 7.85503
17.1999 193 8.09184
18.2562 193 8.92497
21.6679 193 8.09416
34.6967 193 8.20541
38.7321 193 8.01778
40.2713 193 8.90634
54.7797 193 8.26266
57.315 193 8.83878
57.315 196.5 8.83878
57.315 203.5 8.83878
57.315 207 8.83878
20.8258 193 9.93594
23.7824 193 9.30759
29.0055 193 9.50378
41.6367 193 9.74191
41.8886 207 9.42191
33.7396 193 10.1702
54.1759 193 10.0298
19.6338 193 11.8481
25.0605 193 11.5519
36.818 193 11.9473
44.3676 193 11.413
47.9687 193 11.0929
53.5722 193 11.797
35.9415 207 11.9725
51.3679 207 11.3894
14.958 193 12.267
18.1772 193 12.9258
20.4802 193 12.0704
24.591 193 12.3314
32.7826 193 12.1349
45.7331 193 12.2486
56.1075 194.75 12.3732
56.1075 198.25 12.3732
14.958 200 12.267
56.1075 201.75 12.3732
56.1075 205.25 12.3732
14.958 207 12.267
20.2039 207 12.1934
25.4498 207 12.1198
30.6956 207 12.0462
40.6811 207 12.9563
17.3473 193 13.6814
19.1416 193 13.6195
23.652 193 13.8906
26.2635 193 13.9887
37.8787 193 13.8182
39.8964 193 13.7244
47.0985 193 13.0842
45.4207 207 13.94
31.4116 193 14.3773
33.3647 193 14.9882
41.2618 193 14.56
49.8294 193 14.7553
19.347 207 14.4893
29.8388 207 14.342
50.1604 207 14.9238
5.765 -1.5e-05 15.318
5.765 6.03124 15.318
6.77428 6.03124 15.7828
5.765 12.0625 15.318
5.765 18.0937 15.318
6.77428 18.0937 15.7828
5.765 24.125 15.318
5.765 30.1562 15.318
6.77428 30.1562 15.7828
5.765 36.1875 15.318
5.765 42.2187 15.318
6.77428 42.2187 15.7828
5.765 48.25 15.318
5.765 54.2812 15.318
6.77428 54.2812 15.7828
5.765 60.3125 15.318
5.765 66.3437 15.318
6.77428 66.3437 15.7828
5.765 72.375 15.318
5.765 78.4062 15.318
6.77428 78.4062 15.7828
5.765 84.4375 15.318
5.765 90.4688 15.318
6.77428 90.4688 15.7828
5.765 96.5 15.318
5.765 102.531 15.318
6.77428 102.531 15.7828
5.765 108.562 15.318
5.765 114.594 15.318
6.77428 114.594 15.7828
5.765 120.625 15.318
5.765 126.656 15.318
6.77428 126.656 15.7828
5.765 132.688 15.318
5.765 138.719 15.318
6.77428 138.719 15.7828
5.765 144.75 15.318
5.765 150.781 15.318
6.77428 150.781 15.7828
5.765 156.812 15.318
5.765 162.844 15.318
6.77428 162.844 15.7828
5.765 168.875 15.318
5.765 174.906 15.318
6.77428 174.906 15.7828
5.765 180.938 15.318
5.765 186.969 15.318
6.77428 186.969 15.7828
5.765 193 15.318
18.796 193 15.754
20.0264 193 15.5441
34.9039 193 15.8768
38.9393 193 15.6892
42.6273 193 15.3955
54.9 193 15.9075
54.9 200 15.9075
54.9 207 15.9075
8.79284 6.03124 16.7122
7.78356 12.0625 16.2475
8.79284 18.0937 16.7123
8.79284 30.1562 16.7123
7.78356 36.1875 16.2475
8.79284 42.2187 16.7123
8.79284 54.2812 16.7123
7.78356 60.3125 16.2475
8.79284 66.3437 16.7123
8.79284 78.4062 16.7123
7.78356 84.4375 16.2475
8.79284 90.4688 16.7123
8.79284 102.531 16.7123
7.78356 108.562 16.2475
8.79284 114.594 16.7123
8.79284 126.656 16.7123
7.78356 132.688 16.2475
8.79284 138.719 16.7123
8.79284 150.781 16.7123
7.78356 156.812 16.2475
8.79284 162.844 16.7123
8.79284 174.906 16.7123
7.78356 180.938 16.2475
8.79284 186.969 16.7123
13.6153 193 16.63
17.8927 193 16.328
19.2924 193 16.0467
27.4665 193 16.4254
43.9927 193 16.2311
48.9592 193 16.7465
13.244 196.5 16.5585
13.244 200 16.5585
13.244 203.5 16.5585
13.244 207 16.5585
18.49 207 16.635
23.736 207 16.7115
28.9819 207 16.6379
34.2277 207 16.5643
39.4736 207 16.4907
9.80212 -1.5e-05 17.177
4.95534 6.03124 17.0424
9.80212 6.03124 17.177
4.95534 18.0937 17.0424
10.8114 18.0937 17.6418
9.80212 24.125 17.177
4.95534 30.1562 17.0424
10.8114 30.1562 17.6418
4.95534 42.2187 17.0424
10.8114 42.2187 17.6418
9.80212 48.25 17.177
4.95534 54.2812 17.0424
10.8114 54.2812 17.6418
4.95534 66.3437 17.0424
10.8114 66.3437 17.6418
9.80212 72.375 17.177
4.95534 78.4062 17.0424
10.8114 78.4062 17.6418
4.95534 90.4688 17.0424
9.80212 96.5 17.177
4.95534 102.531 17.0424
4.95534 114.594 17.0424
10.8114 114.594 17.6418
9.80212 120.625 17.177
4.95534 126.656 17.0424
10.8114 126.656 17.6418
4.95534 138.719 17.0424
10.8114 138.719 17.6418
9.80212 144.75 17.177
4.95534 150.781 17.0424
10.8114 150.781 17.6418
4.95534 162.844 17.0424
10.8114 162.844 17.6418
9.80212 168.875 17.177
4.95534 174.906 17.0424
10.8114 174.906 17.6418
4.95534 186.969 17.0424
9.80212 193 17.177
21.774 193 17.0088
31.9291 193 17.9353
35.9645 193 17.7477
45.3581 193 17.0667
4.14569 12.0625 18.7668
11.8207 12.0625 18.1065
12.83 18.0937 18.5713
12.83 30.1562 18.5713
4.14569 36.1875 18.7668
11.8207 36.1875 18.1065
12.83 42.2187 18.5713
12.83 54.2812 18.5713
4.14569 60.3125 18.7668
11.8207 60.3125 18.1065
12.83 66.3437 18.5713
12.83 78.4062 18.5713
4.14569 84.4375 18.7668
11.8207 84.4375 18.1065
12.83 90.4688 18.5713
12.83 102.531 18.5713
4.14569 108.562 18.7668
11.8207 108.562 18.1065
12.83 114.594 18.5713
12.83 126.656 18.5713
4.14569 132.688 18.7668
11.8207 132.688 18.1065
12.83 138.719 18.5713
12.83 150.781 18.5713
4.14569 156.812 18.7668
11.8207 156.812 18.1065
12.83 162.844 18.5713
12.83 174.906 18.5713
4.14569 180.938 18.7668
11.8207 180.938 18.1065
12.83 186.969 18.5713
15.0343 193 18.7072
23.5215 193 18.4735
28.6696 193 18.8622
39.5214 193 18.5425
48.089 193 18.7378
28.125 207 18.9338
38.6167 207 18.7865
48.9529 207 18.4582
13.8392 -1.5e-05 19.036
3.74086 3.01561 19.629
13.8392 6.03124 19.036
13.8392 12.0625 19.036
14.8485 18.0937 19.5008
15.8578 18.0937 19.9655
3.74086 21.1094 19.629
13.8392 24.125 19.036
3.74086 27.1406 19.629
14.8485 30.1562 19.5008
15.8578 36.1875 19.9655
14.8485 42.2187 19.5008
3.74086 45.2344 19.629
13.8392 48.25 19.036
3.74086 51.2656 19.629
14.8485 54.2812 19.5008
15.8578 60.3125 19.9655
14.8485 66.3437 19.5008
3.74086 69.3594 19.629
13.8392 72.375 19.036
3.74086 75.3906 19.629
14.8485 78.4062 19.5008
15.8578 84.4375 19.9655
3.74086 93.4844 19.629
13.8392 96.5 19.036
3.74086 99.5156 19.629
15.8578 108.562 19.9655
14.8485 114.594 19.5008
3.74086 117.609 19.629
13.8392 120.625 19.036
3.74086 123.641 19.629
14.8485 126.656 19.5008
15.8578 132.688 19.9655
14.8485 138.719 19.5008
3.74086 141.734 19.629
13.8392 144.75 19.036
3.74086 147.766 19.629
14.8485 150.781 19.5008
15.8578 156.812 19.9655
14.8485 162.844 19.5008
3.74086 165.859 19.629
13.8392 168.875 19.036
3.74086 171.891 19.629
14.8485 174.906 19.5008
15.8578 180.938 19.9655
3.74086 189.984 19.629
6.16425 193 19.6963
13.8392 193 19.036
16.3672 193 19.2884
17.6082 193 19.7302
31.2436 193 19.0566
32.9897 193 19.8063
37.0252 193 19.6187
40.8869 193 19.378
52.4249 193 19.1538
53.6925 194.75 19.4419
53.6925 198.25 19.4419
53.6925 201.75 19.4419
53.6925 205.25 19.4419
17.8764 -1.5e-05 20.895
3.33603 6.03124 20.4912
17.8764 6.03124 20.895
17.8764 12.0625 20.895
3.33603 18.0937 20.4912
17.8764 18.0937 20.895
17.8764 24.125 20.895
3.33603 30.1562 20.4912
16.8671 30.1562 20.4303
3.33603 42.2187 20.4912
16.8671 42.2187 20.4303
17.8764 48.25 20.895
3.33603 54.2812 20.4912
16.8671 54.2812 20.4303
3.33603 66.3437 20.4912
16.8671 66.3437 20.4303
17.8764 72.375 20.895
3.33603 78.4062 20.4912
3.33603 90.4688 20.4912
16.8671 90.4688 20.4303
17.8764 96.5 20.895
3.33603 102.531 20.4912
16.8671 102.531 20.4303
3.33603 114.594 20.4912
17.8764 120.625 20.895
3.33603 126.656 20.4912
16.8671 126.656 20.4303
3.33603 138.719 20.4912
16.8671 138.719 20.4303
17.8764 144.75 20.895
3.33603 150.781 20.4912
16.8671 150.781 20.4303
3.33603 162.844 20.4912
16.8671 162.844 20.4303
17.8764 168.875 20.895
3.33603 174.906 20.4912
3.33603 186.969 20.4912
16.8671 186.969 20.4303
11.53 193 20.85
16.5016 193 20.7377
17.8764 193 20.895
18.1047 193 20.0229
19.896 193 20.1271
11.53 200 20.85
11.53 207 20.85
16.776 207 20.9265
2.9312 9.04686 21.3534
18.8857 30.1562 21.3598
19.8949 36.1875 21.8245
2.9312 39.2031 21.3534
18.8857 42.2187 21.3598
18.8857 54.2812 21.3598
2.9312 57.2969 21.3534
19.8949 60.3125 21.8245
18.8857 66.3437 21.3598
18.8857 78.4062 21.3598
19.8949 84.4375 21.8245
2.9312 87.4531 21.3534
2.9312 105.547 21.3534
19.8949 108.562 21.8245
18.8857 114.594 21.3598
18.8857 126.656 21.3598
19.8949 132.688 21.8245
2.9312 135.703 21.3535
18.8857 138.719 21.3598
18.8857 150.781 21.3598
2.9312 153.797 21.3535
19.8949 156.812 21.8245
18.8857 162.844 21.3598
18.8857 174.906 21.3598
19.8949 180.938 21.8245
2.9312 183.953 21.3535
10.2014 193 21.5553
13.0153 193 21.1357
29.8726 193 21.299
38.0858 193 21.4896
43.6177 193 21.0492
44.9832 193 21.8847
22.022 207 21.003
27.268 207 21.0795
32.514 207 21.156
37.7599 207 21.0824
43.0057 207 21.0088
47.7454 207 21.9925
2.52638 -1.5e-05 22.2156
21.9135 -1.5e-05 22.754
21.9135 6.03124 22.754
21.9135 12.0625 22.754
21.9135 18.0937 22.754
2.52638 24.125 22.2156
21.9135 24.125 22.754
20.9042 30.1562 22.2893
21.9135 30.1562 22.754
21.9135 36.1875 22.754
20.9042 42.2187 22.2893
21.9135 42.2187 22.754
2.52638 48.25 22.2156
21.9135 48.25 22.754
20.9042 54.2812 22.2893
21.9135 54.2812 22.754
21.9135 60.3125 22.754
20.9042 66.3437 22.2893
21.9135 66.3437 22.754
2.52638 72.375 22.2156
21.9135 72.375 22.754
20.9042 78.4062 22.2893
21.9135 78.4062 22.754
21.9135 84.4375 22.754
20.9042 90.4688 22.2893
21.9135 90.4688 22.754
2.52638 96.5 22.2156
21.9135 96.5 22.754
20.9042 102.531 22.2893
21.9135 102.531 22.754
21.9135 108.562 22.754
20.9042 114.594 22.2893
21.9135 114.594 22.754
2.52638 120.625 22.2157
21.9135 120.625 22.754
20.9042 126.656 22.2893
21.9135 126.656 22.754
21.9135 132.688 22.754
20.9042 138.719 22.2893
21.9135 138.719 22.754
2.52638 144.75 22.2157
21.9135 144.75 22.754
20.9042 150.781 22.2893
21.9135 150.781 22.754
21.9135 156.812 22.754
20.9042 162.844 22.2893
21.9135 162.844 22.754
2.52638 168.875 22.2157
21.9135 168.875 22.754
20.9042 174.906 22.2893
21.9135 174.906 22.754
21.9135 180.938 22.754
20.9042 186.969 22.2893
21.9135 186.969 22.754
2.52638 193 22.2157
21.9135 193 22.754
46.3486 193 22.7203
49.9497 193 22.4002
52.485 193 22.9763
52.485 196.5 22.9763
52.485 203.5 22.9763
52.485 207 22.9763
1.71672 6.03124 23.94
2.12155 15.0781 23.0778
1.71672 18.0937 23.94
1.71672 30.1562 23.94
22.9228 30.1562 23.2188
2.12155 33.1719 23.0778
23.9321 36.1875 23.6835
1.71672 42.2187 23.94
22.9228 42.2187 23.2188
1.71672 54.2812 23.94
22.9228 54.2812 23.2188
23.9321 60.3125 23.6835
2.12155 63.3281 23.0778
1.71672 66.3437 23.9401
22.9228 66.3437 23.2188
1.71672 78.4062 23.9401
22.9228 78.4062 23.2188
2.12155 81.4219 23.0779
23.9321 84.4375 23.6835
1.71672 90.4687 23.9401
22.9228 90.4688 23.2188
1.71672 102.531 23.9401
22.9228 102.531 23.2188
23.9321 108.562 23.6835
2.12155 111.578 23.0779
1.71672 114.594 23.9401
22.9228 114.594 23.2188
1.71672 126.656 23.9401
22.9228 126.656 23.2188
2.12155 129.672 23.0779
23.9321 132.688 23.6835
1.71672 138.719 23.9401
22.9228 138.719 23.2188
1.71672 150.781 23.9401
22.9228 150.781 23.2188
23.9321 156.812 23.6835
2.12155 159.828 23.0779
1.71672 162.844 23.9401
22.9228 162.844 23.2188
1.71672 174.906 23.9401
22.9228 174.906 23.2188
2.12155 177.922 23.0779
23.9321 180.938 23.6835
1.71672 186.969 23.9401
22.9228 186.969 23.2188
14.2385 193 23.4143
16.917 193 23.9992
18.018 193 23.2453
23.3535 193 23.1528
25.9276 193 23.3471
31.0756 193 23.7358
35.1111 193 23.5482
39.1465 193 23.3605
42.7476 193 23.0404
26.411 207 23.2253
36.903 207 23.3783
25.9506 -1.5e-05 24.613
25.9506 6.03124 24.613
25.9506 12.0625 24.613
25.9506 18.0937 24.613
25.9506 24.125 24.613
1.31189 27.1406 24.8022
24.9414 30.1562 24.1483
24.9413 42.2187 24.1483
25.9506 48.25 24.613
24.9413 54.2812 24.1483
24.9414 66.3437 24.1483
25.9506 72.375 24.613
1.31189 75.3906 24.8022
24.9414 78.4062 24.1483
25.9506 96.5 24.613
24.9414 114.594 24.1483
25.9506 120.625 24.613
1.31189 123.641 24.8023
24.9414 126.656 24.1483
24.9413 138.719 24.1483
25.9506 144.75 24.613
24.9413 150.781 24.1483
24.9414 162.844 24.1483
25.9506 168.875 24.613
1.31189 171.891 24.8023
24.9414 174.906 24.1483
6.5635 193 24.0747
19.7655 193 24.71
22.668 193 24.274
25.9506 193 24.613
32.6148 193 24.6243
49.0795 193 24.3914
0.907063 12.0625 25.6644
27.9692 18.0937 25.5425
26.9599 30.1562 25.0778
0.907063 36.1875 25.6644
27.9692 36.1875 25.5425
26.9599 42.2187 25.0778
26.9599 54.2812 25.0778
0.907063 60.3125 25.6644
27.9692 60.3125 25.5425
26.9599 66.3437 25.0778
0.907063 84.4375 25.6645
27.9692 84.4375 25.5425
26.9599 90.4687 25.0778
26.9599 102.531 25.0778
0.907063 108.562 25.6645
27.9692 108.562 25.5425
26.9599 126.656 25.0778
0.907063 132.688 25.6645
27.9692 132.688 25.5425
26.9599 138.719 25.0778
26.9599 150.781 25.0778
0.907063 156.812 25.6645
27.9692 156.812 25.5425
26.9599 162.844 25.0778
0.907063 180.938 25.6645
27.9692 180.938 25.5425
26.9599 186.969 25.0778
9.816 193 25.1415
10.6006 193 25.9337
11.3013 193 25.4272
15.1105 193 25.1473
16.0749 193 25.8409
21.9825 193 25.3952
34.154 193 25.5129
36.1717 193 25.4191
9.816 196.5 25.1415
9.816 200 25.1415
9.816 203.5 25.1415
9.816 207 25.1415
15.062 207 25.218
20.308 207 25.2945
25.554 207 25.371
30.8 207 25.4475
36.046 207 25.524
41.292 207 25.6005
46.5379 207 25.5269
29.9877 -1.5e-05 26.472
0.502234 3.01561 26.5266
29.9877 6.03124 26.472
29.9877 12.0625 26.472
28.9785 18.0937 26.0073
30.997 18.0937 26.9368
0.502234 21.1094 26.5266
29.9877 24.125 26.472
28.9785 30.1562 26.0073
30.997 30.1562 26.9368
28.9785 42.2187 26.0073
30.997 42.2187 26.9368
0.502234 45.2344 26.5266
29.9877 48.25 26.472
0.502234 51.2656 26.5266
28.9785 54.2812 26.0073
30.997 54.2812 26.9368
28.9785 66.3437 26.0073
30.997 66.3437 26.9368
0.502234 69.3594 26.5266
29.9877 72.375 26.472
28.9785 78.4062 26.0073
30.997 78.4062 26.9368
30.997 90.4687 26.9368
0.502234 93.4844 26.5267
29.9877 96.5 26.472
0.502234 99.5156 26.5267
30.997 102.531 26.9368
28.9785 114.594 26.0073
30.997 114.594 26.9368
0.502234 117.609 26.5267
29.9877 120.625 26.472
28.9785 126.656 26.0073
30.997 126.656 26.9368
28.9785 138.719 26.0073
30.997 138.719 26.9368
0.502234 141.734 26.5267
29.9877 144.75 26.472
0.502234 147.766 26.5267
28.9785 150.781 26.0073
30.997 150.781 26.9368
28.9785 162.844 26.0073
30.997 162.844 26.9368
0.502234 165.859 26.5267
29.9877 168.875 26.472
28.9785 174.906 26.0073
30.997 174.906 26.9368
30.997 186.969 26.9368
0.502234 189.984 26.5267
2.92563 193 26.594
29.9877 193 26.472
44.6082 193 26.7028
51.2775 194.75 26.5107
51.2775 198.25 26.5107
51.2775 201.75 26.5107
51.2775 205.25 26.5107
0.097406 6.03124 27.3888
32.0063 12.0625 27.4015
0.097406 18.0937 27.3888
33.0156 18.0937 27.8662
0.097406 30.1562 27.3888
33.0156 30.1562 27.8663
32.0063 36.1875 27.4015
0.097406 42.2187 27.3888
33.0156 42.2187 27.8663
0.097406 54.2812 27.3889
33.0156 54.2812 27.8663
32.0063 60.3125 27.4015
0.097406 66.3437 27.3889
33.0156 66.3437 27.8663
0.097406 78.4062 27.3889
33.0156 78.4062 27.8663
32.0063 84.4375 27.4015
0.097406 90.4687 27.3889
0.097406 102.531 27.3889
32.0063 108.562 27.4015
0.097406 114.594 27.3889
33.0156 114.594 27.8663
0.097406 126.656 27.3889
33.0156 126.656 27.8663
32.0063 132.688 27.4015
0.097406 138.719 27.3889
33.0156 138.719 27.8663
0.097406 150.781 27.3889
33.0156 150.781 27.8663
32.0063 156.812 27.4015
0.097406 162.844 27.3889
33.0156 162.844 27.8663
0.097406 174.906 27.3889
33.0156 174.906 27.8663
32.0063 180.938 27.4015
0.097406 186.969 27.3889
23.1856 193 27.832
37.2324 193 27.29
41.0072 193 27.0229
35.189 207 27.6698
45.681 207 27.8228
34.0249 -1.5e-05 28.331
34.0249 6.03124 28.331
35.0342 6.03124 28.7957
35.0342 18.0937 28.7958
34.0249 24.125 28.331
35.0342 30.1562 28.7958
35.0342 42.2187 28.7958
34.0249 48.25 28.331
35.0342 54.2812 28.7958
35.0342 66.3437 28.7958
34.0249 72.375 28.331
35.0342 78.4062 28.7958
35.0342 90.4687 28.7958
34.0249 96.5 28.331
35.0342 102.531 28.7958
35.0342 114.594 28.7958
34.0249 120.625 28.331
35.0342 126.656 28.7958
35.0342 138.719 28.7958
34.0249 144.75 28.331
35.0342 150.781 28.7958
35.0342 162.844 28.7958
34.0249 168.875 28.331
35.0342 174.906 28.7958
35.0342 186.969 28.7958
6.96275 193 28.453
25.7596 193 28.0263
28.3336 193 28.2206
34.0249 193 28.331
38.7716 193 28.1786
-0.71225 -1.5e-05 29.1133
-0.71225 6.03124 29.1133
37.0527 6.03124 29.7253
-0.71225 12.0625 29.1133
36.0434 12.0625 29.2605
-0.71225 18.0937 29.1133
37.0527 18.0937 29.7253
-0.71225 24.125 29.1133
-0.71225 30.1562 29.1133
37.0527 30.1562 29.7253
-0.71225 36.1875 29.1133
36.0434 36.1875 29.2605
-0.71225 42.2187 29.1133
37.0527 42.2187 29.7253
-0.71225 48.25 29.1133
-0.71225 54.2812 29.1133
37.0527 54.2812 29.7253
-0.71225 60.3125 29.1133
36.0434 60.3125 29.2605
-0.71225 66.3437 29.1133
37.0527 66.3437 29.7253
-0.71225 72.375 29.1133
-0.71225 78.4062 29.1133
37.0527 78.4062 29.7253
-0.71225 84.4375 29.1133
36.0434 84.4375 29.2605
-0.71225 90.4687 29.1133
37.0527 90.4687 29.7253
-0.71225 96.5 29.1133
-0.71225 102.531 29.1133
37.0527 102.531 29.7253
-0.71225 108.562 29.1133
36.0434 108.562 29.2605
-0.71225 114.594 29.1133
37.0527 114.594 29.7253
-0.71225 120.625 29.1133
-0.71225 126.656 29.1133
37.0527 126.656 29.7253
-0.71225 132.688 29.1133
36.0434 132.688 29.2605
-0.71225 138.719 29.1133
37.0527 138.719 29.7253
-0.71225 144.75 29.1133
-0.71225 150.781 29.1133
37.0527 150.781 29.7253
-0.71225 156.812 29.1133
36.0434 156.812 29.2605
-0.71225 162.844 29.1133
37.0527 162.844 29.7253
-0.71225 168.875 29.1133
-0.71225 174.906 29.1133
37.0527 174.906 29.7253
-0.71225 180.938 29.1133
36.0434 180.938 29.2605
-0.71225 186.969 29.1133
37.0527 186.969 29.7253
-0.71225 193 29.1133
8.102 193 29.433
30.2222 193 29.5362
32.2399 193 29.4424
40.137 193 29.0142
8.102 200 29.433
8.102 207 29.433
13.348 207 29.5095
18.594 207 29.586
23.84 207 29.6625
29.086 207 29.739
34.332 207 29.8155
39.578 207 29.892
44.824 207 29.9685
38.062 -1.5e-05 30.19
-1.52191 6.03124 30.8377
38.062 6.03124 30.19
39.338 6.03124 30.7891
38.4873 12.0625 30.3897
-1.52191 18.0937 30.8377
38.062 18.0937 30.19
39.338 18.0937 30.7891
38.062 24.125 30.19
39.7634 24.125 30.9888
-1.52191 30.1562 30.8377
38.4873 30.1562 30.3897
39.338 30.1562 30.7891
38.4873 36.1875 30.3897
-1.52191 42.2187 30.8377
38.062 42.2187 30.19
39.338 42.2187 30.7891
38.062 48.25 30.19
-1.52191 54.2812 30.8377
38.4873 54.2812 30.3897
39.338 54.2812 30.7891
38.4873 60.3125 30.3897
-1.52191 66.3437 30.8377
38.4873 66.3437 30.3897
39.338 66.3437 30.7891
38.062 72.375 30.19
39.7634 72.375 30.9888
-1.52191 78.4062 30.8377
38.4873 78.4062 30.3897
39.338 78.4062 30.7891
38.4873 84.4375 30.3897
-1.52191 90.4687 30.8377
38.4873 90.4687 30.3897
39.338 90.4687 30.7891
38.062 96.5 30.19
-1.52191 102.531 30.8377
38.062 102.531 30.19
38.4873 108.562 30.3897
-1.52191 114.594 30.8377
38.062 114.594 30.19
39.338 114.594 30.7891
38.062 120.625 30.19
39.7634 120.625 30.9888
-1.52191 126.656 30.8377
38.062 126.656 30.19
39.338 126.656 30.7891
38.4873 132.688 30.3897
-1.52191 138.719 30.8377
38.062 138.719 30.19
39.338 138.719 30.7891
38.062 144.75 30.19
-1.52191 150.781 30.8377
38.4873 150.781 30.3897
39.338 150.781 30.7891
38.4873 156.812 30.3897
-1.52191 162.844 30.8377
38.4873 162.844 30.3897
39.338 162.844 30.7891
38.062 168.875 30.19
39.7634 168.875 30.9888
-1.52191 174.906 30.8377
38.4873 174.906 30.3897
39.338 174.906 30.7891
38.4873 180.938 30.3897
-1.52191 186.969 30.8377
38.4873 186.969 30.3897
39.338 186.969 30.7891
3.32488 193 30.9723
10.9999 193 30.312
33.7791 193 30.331
38.062 193 30.19
42.8679 193 30.6853
50.07 193 30.045
50.07 200 30.045
50.07 207 30.045
40.6141 12.0625 31.3881
40.1887 18.0937 31.1884
41.8901 18.0937 31.9872
-1.92673 27.1406 31.6999
40.1887 30.1562 31.1884
41.8901 30.1562 31.9872
40.6141 36.1875 31.3881
41.4648 42.2187 31.7875
41.4647 48.25 31.7875
41.4648 54.2812 31.7875
40.6141 60.3125 31.3881
40.1887 66.3437 31.1884
41.0394 66.3437 31.5878
-1.92673 75.3906 31.6999
40.1887 78.4062 31.1884
41.8901 78.4062 31.9872
40.6141 84.4375 31.3881
40.1887 102.531 31.1885
41.0394 114.594 31.5878
-1.92673 123.641 31.6999
40.1887 126.656 31.1885
41.0394 126.656 31.5878
40.6141 132.688 31.3881
41.4648 138.719 31.7875
41.4647 144.75 31.7875
41.4648 150.781 31.7875
40.6141 156.812 31.3881
40.1887 162.844 31.1885
41.8901 162.844 31.9872
-1.92673 171.891 31.6999
40.1887 174.906 31.1885
41.8901 174.906 31.9872
40.6141 180.938 31.3882
31.2828 193 31.4072
35.3182 193 31.2195
44.2333 193 31.5208
42.7408 6.03124 32.3866
-2.33156 12.0625 32.5621
43.1661 24.125 32.5863
42.7408 30.1562 32.3866
-2.33156 36.1875 32.5621
42.3154 36.1875 32.1869
43.5915 42.2187 32.7859
43.5915 54.2812 32.7859
-2.33156 60.3125 32.5621
42.3154 60.3125 32.1869
42.7408 66.3437 32.3866
43.1661 72.375 32.5863
43.5915 78.4062 32.7859
-2.33156 84.4375 32.5621
44.0168 84.4375 32.9856
42.7408 90.4687 32.3866
43.5915 102.531 32.7859
-2.33156 108.562 32.5621
42.3154 108.562 32.1869
44.0168 108.562 32.9856
42.7408 114.594 32.3866
43.5915 114.594 32.786
43.1661 120.625 32.5863
42.7408 126.656 32.3866
43.5915 126.656 32.786
-2.33156 132.688 32.5621
42.3154 132.688 32.1869
44.0168 132.688 32.9856
42.7408 138.719 32.3866
43.5915 150.781 32.786
-2.33156 156.812 32.5621
42.3154 156.812 32.1869
42.7408 162.844 32.3866
43.1661 168.875 32.5863
-2.33156 180.938 32.5621
42.7408 186.969 32.3866
7.362 193 32.8313
36.8574 193 32.1081
38.3966 193 32.9967
41.9977 193 32.6765
44.8675 -1.5e-05 33.385
-2.73639 3.01561 33.4243
46.1435 6.03124 33.9841
45.2928 18.0937 33.5847
-2.73639 21.1094 33.4243
44.4422 30.1562 33.1853
45.7182 36.1875 33.7844
-2.73639 45.2344 33.4243
-2.73639 51.2656 33.4243
45.7182 60.3125 33.7844
44.4422 66.3437 33.1853
46.1435 66.3437 33.9841
-2.73639 69.3594 33.4243
45.2928 78.4062 33.5847
46.1435 78.4062 33.9841
45.7182 84.4375 33.7844
44.4422 90.4687 33.1853
45.2928 90.4687 33.5847
46.1435 90.4687 33.9841
-2.73639 93.4844 33.4243
44.8675 96.5 33.385
-2.73639 99.5156 33.4243
44.4422 102.531 33.1853
45.2928 102.531 33.5847
45.7182 108.562 33.7844
44.4422 114.594 33.1853
46.1435 114.594 33.9841
-2.73639 117.609 33.4243
45.2928 126.656 33.5847
46.1435 138.719 33.9841
-2.73639 141.734 33.4243
-2.73639 147.766 33.4243
45.7182 156.812 33.7844
44.4422 162.844 33.1853
-2.73639 165.859 33.4243
45.2928 174.906 33.5847
46.1435 186.969 33.9841
-2.73639 189.984 33.4243
-0.313 193 33.4916
6.352 193 33.3278
44.8675 193 33.385
46.9642 193 33.192
6.352 194.75 33.3278
6.352 198.25 33.3278
6.352 201.75 33.3278
6.352 205.25 33.3278
6.352 207 33.3278
11.6076 207 33.492
16.8536 207 33.5685
22.0996 207 33.645
27.3456 207 33.7215
32.5916 207 33.798
37.8376 207 33.8745
43.0836 207 33.951
47.4196 12.0625 34.5831
-3.14122 18.0937 34.2865
-3.14122 30.1562 34.2865
47.8449 30.1562 34.7828
-3.14122 42.2187 34.2865
46.9942 42.2187 34.3834
48.2702 48.25 34.9825
-3.14122 54.2812 34.2865
46.9942 54.2812 34.3834
47.8449 54.2812 34.7828
47.4196 60.3125 34.5831
-3.14122 66.3437 34.2865
46.9942 66.3437 34.3834
47.8449 66.3437 34.7828
46.5689 72.375 34.1838
-3.14122 78.4062 34.2865
46.9942 78.4062 34.3834
47.4196 84.4375 34.5831
-3.14122 90.4687 34.2865
-3.14122 102.531 34.2865
46.9942 102.531 34.3835
-3.14122 114.594 34.2865
47.8449 114.594 34.7828
46.5689 120.625 34.1838
-3.14122 126.656 34.2865
46.9942 126.656 34.3835
47.8449 126.656 34.7828
47.4196 132.688 34.5831
-3.14122 138.719 34.2865
47.8449 138.719 34.7828
48.2702 144.75 34.9825
-3.14122 150.781 34.2865
46.9942 150.781 34.3835
-3.14122 162.844 34.2865
47.8449 162.844 34.7828
-3.14122 174.906 34.2865
47.4196 180.938 34.5832
-3.14122 186.969 34.2865
41.1275 193 34.6678
48.3296 193 34.0275
48.3296 194.75 34.0275
48.3296 198.25 34.0275
48.3296 201.75 34.0275
48.3296 205.25 34.0275
48.3296 207 34.0275
49.5463 6.03124 35.5816
-3.54605 9.04686 35.1487
48.6956 18.0937 35.1822
50.397 18.0937 35.9809
49.9716 24.125 35.7813
49.5463 30.1562 35.5816
50.397 30.1562 35.9809
49.1209 36.1875 35.3819
-3.54605 39.2031 35.1487
48.6956 42.2187 35.1822
50.397 42.2187 35.9809
48.6956 54.2812 35.1822
50.397 54.2812 35.9809
-3.54605 57.2969 35.1487
49.1209 60.3125 35.3819
49.5463 66.3437 35.5816
50.397 66.3437 35.9809
49.9716 72.375 35.7813
48.6956 78.4062 35.1822
50.397 78.4062 35.9809
-3.54605 87.4531 35.1487
49.5463 90.4687 35.5816
50.397 102.531 35.9809
-3.54605 105.547 35.1487
49.1209 108.562 35.3819
49.5463 114.594 35.5816
50.397 114.594 35.981
49.9716 120.625 35.7813
49.5463 126.656 35.5816
50.397 126.656 35.981
49.1209 132.688 35.3819
-3.54605 135.703 35.1487
48.6956 138.719 35.1822
50.397 138.719 35.981
48.6956 150.781 35.1822
50.397 150.781 35.981
-3.54605 153.797 35.1487
49.1209 156.812 35.3819
49.5463 162.844 35.5816
50.397 162.844 35.981
49.9716 168.875 35.7813
48.6956 174.906 35.1822
50.397 174.906 35.981
-3.54605 183.953 35.1487
49.5463 186.969 35.5816
3.72412 193 35.3506
-3.95088 -1.5e-05 36.0109
51.673 -1.5e-05 36.58
51.673 6.03124 36.58
50.8223 12.0625 36.1806
51.673 12.0625 36.58
-4.3557 15.0781 36.8731
51.2477 18.0937 36.3803
-3.95088 24.125 36.0109
51.673 24.125 36.58
51.673 30.1562 36.58
-4.3557 33.1719 36.8731
50.8223 36.1875 36.1806
51.673 36.1875 36.58
51.673 42.2187 36.58
-3.95088 48.25 36.0109
51.673 48.25 36.58
51.673 54.2812 36.58
50.8223 60.3125 36.1806
51.673 60.3125 36.58
-4.3557 63.3281 36.8731
51.2477 66.3437 36.3803
-3.95088 72.375 36.0109
51.673 72.375 36.58
51.2477 78.4062 36.3803
-4.3557 81.4219 36.8731
50.8223 84.4375 36.1806
51.673 84.4375 36.58
51.2477 90.4687 36.3803
-3.95088 96.5 36.0109
51.673 96.5 36.58
51.673 102.531 36.58
50.8223 108.562 36.1806
51.673 108.562 36.58
-4.3557 111.578 36.8731
51.2477 114.594 36.3803
-3.95088 120.625 36.0109
51.673 120.625 36.58
51.673 126.656 36.58
-4.3557 129.672 36.8731
50.8223 132.688 36.1806
51.673 132.688 36.58
51.673 138.719 36.58
-3.95088 144.75 36.0109
51.673 144.75 36.58
51.673 150.781 36.58
50.8223 156.812 36.1807
51.673 156.812 36.58
-4.3557 159.828 36.8731
51.2477 162.844 36.3803
-3.95088 168.875 36.0109
51.673 168.875 36.58
51.2477 174.906 36.3803
-4.3557 177.922 36.8731
50.8223 180.938 36.1807
51.673 180.938 36.58
51.2477 186.969 36.3803
-3.95088 193 36.0109
43.8584 193 36.3389
51.673 193 36.58
-4.76053 6.03124 37.7353
-4.76053 30.1562 37.7353
-4.76053 42.2187 37.7353
-4.76053 54.2812 37.7353
-4.76053 66.3437 37.7353
-4.76053 78.4062 37.7353
-4.76053 90.4687 37.7353
-4.76053 102.531 37.7353
-4.76053 114.594 37.7353
-4.76053 126.656 37.7353
-4.76053 138.719 37.7353
-4.76053 150.781 37.7353
-4.76053 162.844 37.7353
-4.76053 174.906 37.7353
-4.76053 186.969 37.7353
0.08625 193 37.8699
4.602 193 37.2225
7.76125 193 37.2096
4.602 196.5 37.2225
4.602 203.5 37.2225
4.602 207 37.2225
9.85763 207 37.3868
15.1132 207 37.551
20.3592 207 37.6275
25.6052 207 37.704
30.8512 207 37.7805
36.0973 207 37.857
41.3433 207 37.9335
50.8633 6.03124 38.3047
50.8633 18.0937 38.3048
-5.16536 21.1094 38.5975
-5.16536 27.1406 38.5975
50.8633 30.1562 38.3048
50.8633 42.2187 38.3048
50.8633 54.2812 38.3048
50.8633 66.3437 38.3048
-5.16536 75.3906 38.5975
50.8633 78.4062 38.3048
50.8633 90.4687 38.3048
50.8633 102.531 38.3048
50.8633 114.594 38.3048
-5.16536 123.641 38.5975
50.8633 126.656 38.3048
50.8633 138.719 38.3048
50.8633 150.781 38.3048
50.8633 162.844 38.3048
-5.16536 171.891 38.5975
50.8633 174.906 38.3048
50.8633 186.969 38.3048
42.9882 193 38.3302
46.5892 193 38.01
47.5016 193 38.8314
46.5892 196.5 38.01
46.5892 203.5 38.01
46.5892 207 38.01
-5.57019 12.0625 39.4597
50.4585 21.1094 39.1671
-5.57019 36.1875 39.4597
-5.57019 60.3125 39.4597
50.4585 69.3594 39.1671
-5.57019 84.4375 39.4597
-5.57019 108.562 39.4597
50.4585 117.609 39.1671
-5.57019 132.688 39.4597
-5.57019 156.812 39.4597
50.4585 165.859 39.1672
-5.57019 180.938 39.4597
4.12337 193 39.7289
-5.97502 3.01561 40.3219
49.6489 3.01561 40.8919
50.0537 12.0625 40.0295
49.6489 27.1406 40.8919
50.0537 36.1875 40.0295
-5.97502 45.2344 40.3219
49.6489 45.2344 40.8919
-5.97502 51.2656 40.3219
49.6489 51.2656 40.8919
50.0537 60.3125 40.0295
-5.97502 69.3594 40.3219
49.6489 75.3906 40.8919
50.0537 84.4375 40.0295
-5.97502 93.4844 40.3219
49.6489 93.4844 40.8919
-5.97502 99.5156 40.3219
49.6489 99.5156 40.8919
50.0537 108.562 40.0295
-5.97502 117.609 40.3219
49.6489 123.641 40.8919
50.0537 132.688 40.0295
-5.97502 141.734 40.3219
49.6489 141.734 40.8919
-5.97502 147.766 40.3219
49.6489 147.766 40.8919
50.0537 156.812 40.0295
-5.97502 165.859 40.3219
49.6489 171.891 40.8919
50.0537 180.938 40.0295
-5.97502 189.984 40.3219
49.6489 189.984 40.8919
-3.55163 193 40.3892
49.244 6.03124 41.7542
-6.37984 18.0937 41.1841
49.244 18.0937 41.7543
-6.37984 30.1562 41.1841
49.244 30.1562 41.7543
-6.37984 42.2187 41.1841
49.244 42.2187 41.7543
-6.37984 54.2812 41.1841
49.244 54.2812 41.7543
-6.37984 66.3437 41.1841
49.244 66.3437 41.7543
-6.37984 78.4062 41.1841
49.244 78.4062 41.7543
-6.37984 90.4687 41.1841
49.244 90.4687 41.7543
-6.37984 102.531 41.1841
49.244 102.531 41.7543
-6.37984 114.594 41.1841
49.244 114.594 41.7543
-6.37984 126.656 41.1841
49.244 126.656 41.7543
-6.37984 138.719 41.1841
49.244 138.719 41.7543
-6.37984 150.781 41.1841
49.244 150.781 41.7543
-6.37984 162.844 41.1841
49.244 162.844 41.7543
-6.37984 174.906 41.1841
49.244 174.906 41.7543
-6.37984 186.969 41.1841
49.244 186.969 41.7543
2.852 193 41.1173
43.3302 193 41.0828
44.8489 193 41.9925
2.852 194.75 41.1173
44.8489 194.75 41.9925
2.852 198.25 41.1173
44.8489 198.25 41.9925
2.852 201.75 41.1173
44.8489 201.75 41.9925
2.852 205.25 41.1173
44.8489 205.25 41.9925
2.852 207 41.1173
8.10763 207 41.2815
13.3632 207 41.4458
18.6189 207 41.61
23.8649 207 41.6865
29.1109 207 41.763
34.3569 207 41.8395
39.6029 207 41.916
44.8489 207 41.9925
-7.1895 -1.5e-05 42.9085
-6.78467 9.04686 42.0463
48.8392 9.04686 42.6166
-7.1895 24.125 42.9085
-7.1895 30.1562 42.9085
-7.1895 36.1875 42.9085
48.8392 39.2031 42.6166
-7.1895 42.2187 42.9085
-7.1895 48.25 42.9085
-7.1895 54.2812 42.9085
48.8392 57.2969 42.6166
-7.1895 60.3125 42.9085
-7.1895 66.3437 42.9085
-7.1895 72.375 42.9085
-7.1895 78.4062 42.9085
-7.1895 84.4375 42.9085
48.8392 87.4531 42.6166
-7.1895 90.4687 42.9085
-7.1895 96.5 42.9085
-7.1895 102.531 42.9085
48.8392 105.547 42.6166
-7.1895 108.562 42.9085
-7.1895 114.594 42.9085
-7.1895 120.625 42.9085
-7.1895 126.656 42.9085
-7.1895 132.688 42.9085
48.8392 135.703 42.6166
-7.1895 138.719 42.9085
-7.1895 144.75 42.9085
-7.1895 150.781 42.9085
48.8392 153.797 42.6167
-7.1895 156.812 42.9085
-7.1895 162.844 42.9085
-7.1895 168.875 42.9085
-7.1895 174.906 42.9085
-7.1895 180.938 42.9085
48.8392 183.953 42.6167
-7.1895 186.969 42.9085
-7.1895 193 42.9085
0.4855 193 42.2482
46.733 193 42.6803
48.4344 -1.5e-05 43.479
-7.59433 15.0781 43.7707
48.4344 24.125 43.479
48.4344 48.25 43.479
48.4344 72.375 43.479
48.4344 96.5 43.479
48.4344 120.625 43.479
48.4344 144.75 43.479
48.4344 168.875 43.479
39.1589 193 43.3342
48.4344 193 43.479
-7.99916 6.03124 44.6329
48.0295 15.0781 44.3414
-7.99916 18.0937 44.6329
-7.99916 30.1562 44.6329
48.0295 33.1719 44.3414
-7.99916 42.2187 44.6329
-7.99916 54.2812 44.6329
48.0295 63.3281 44.3414
-7.99916 66.3437 44.6329
-7.99916 78.4062 44.6329
48.0295 81.4219 44.3414
-7.99916 90.4687 44.6329
-7.99916 102.531 44.6329
48.0295 111.578 44.3414
-7.99916 114.594 44.6329
-7.99916 126.656 44.6329
48.0295 129.672 44.3414
-7.99916 138.719 44.6329
-7.99916 150.781 44.6329
48.0295 159.828 44.3414
-7.99916 162.844 44.6329
-7.99916 174.906 44.6329
48.0295 177.922 44.3414
-7.99916 186.969 44.6329
-3.15237 193 44.7675
4.52262 193 44.1072
47.6247 6.03124 45.2038
47.6247 18.0937 45.2038
-8.40399 27.1406 45.4951
47.6247 30.1562 45.2038
47.6247 42.2187 45.2038
47.6247 54.2812 45.2038
47.6247 66.3437 45.2038
-8.40399 75.3906 45.4951
47.6247 78.4062 45.2038
47.6247 90.4687 45.2038
47.6247 102.531 45.2038
47.6247 114.594 45.2038
-8.40399 123.641 45.4951
47.6247 126.656 45.2038
47.6247 138.719 45.2038
47.6247 150.781 45.2038
47.6247 162.844 45.2038
-8.40399 171.891 45.4951
47.6247 174.906 45.2038
47.6247 186.969 45.2038
1.102 193 45.012
34.9875 193 45.5855
43.1085 193 45.975
1.102 200 45.012
43.1085 200 45.975
1.102 207 45.012
6.35763 207 45.1763
11.6132 207 45.3405
16.8689 207 45.5048
22.1245 207 45.669
27.3705 207 45.7455
32.6165 207 45.822
37.8625 207 45.8985
43.1085 207 45.975
-8.80881 12.0625 46.3573
46.8151 12.0625 46.9285
-8.80881 18.0937 46.3573
47.2199 21.1094 46.0661
-8.80881 36.1875 46.3573
46.8151 36.1875 46.9285
-8.80881 60.3125 46.3573
46.8151 60.3125 46.9285
47.2199 69.3594 46.0661
-8.80881 84.4375 46.3573
46.8151 84.4375 46.9285
-8.80881 108.562 46.3573
46.8151 108.562 46.9285
47.2199 117.609 46.0662
-8.80881 132.688 46.3573
46.8151 132.688 46.9285
-8.80881 156.812 46.3573
46.8151 156.812 46.9285
47.2199 165.859 46.0662
-8.80881 180.938 46.3573
46.8151 180.938 46.9285
0.88475 193 46.6265
-9.21364 3.01561 47.2195
46.4102 3.01561 47.7909
46.4102 27.1406 47.7909
-9.21364 45.2344 47.2195
46.4102 45.2344 47.7909
-9.21364 51.2656 47.2195
46.4102 51.2656 47.7909
-9.21364 69.3594 47.2195
46.4102 75.3906 47.7909
-9.21364 93.4844 47.2195
46.4102 93.4844 47.7909
-9.21364 99.5156 47.2195
46.4102 99.5156 47.7909
-9.21364 117.609 47.2195
46.4102 123.641 47.7909
-9.21364 141.734 47.2195
46.4102 141.734 47.7909
-9.21364 147.766 47.2195
46.4102 147.766 47.7909
-9.21364 165.859 47.2196
46.4102 171.891 47.7909
-9.21364 189.984 47.2196
46.4102 189.984 47.7909
-6.86662 193 47.3292
46.0054 6.03124 48.6533
-10.0233 9.04686 48.9439
46.0054 18.0937 48.6533
-9.61847 30.1562 48.0817
46.0054 30.1562 48.6533
-10.0233 39.2031 48.9439
-9.61847 42.2187 48.0817
46.0054 42.2187 48.6533
-9.61847 54.2812 48.0817
46.0054 54.2812 48.6533
-10.0233 57.2969 48.9439
-9.61847 66.3437 48.0817
46.0054 66.3437 48.6533
-9.61847 78.4062 48.0817
46.0054 78.4062 48.6533
-10.0233 87.4531 48.9439
-9.61847 90.4687 48.0817
46.0054 90.4687 48.6533
-9.61847 102.531 48.0817
46.0054 102.531 48.6533
-10.0233 105.547 48.944
-9.61847 114.594 48.0817
46.0054 114.594 48.6533
-9.61847 126.656 48.0817
46.0054 126.656 48.6533
-10.0233 135.703 48.944
-9.61847 138.719 48.0817
46.0054 138.719 48.6533
-9.61847 150.781 48.0817
46.0054 150.781 48.6533
-10.0233 153.797 48.944
-9.61847 162.844 48.0817
46.0054 162.844 48.6533
-9.61847 174.906 48.0817
46.0054 174.906 48.6533
-10.0233 183.953 48.944
-9.61847 186.969 48.0817
46.0054 186.969 48.6533
-0.648 193 48.9068
4.92188 193 48.4855
41.793 193 48.7805
-0.648 194.75 48.9068
-0.648 198.25 48.9068
-0.648 201.75 48.9068
-0.648 205.25 48.9068
-0.648 207 48.9068
-10.4281 -1.5e-05 49.8061
-10.4281 12.0625 49.8061
-10.4281 18.0937 49.8061
-10.4281 24.125 49.8061
-10.4281 48.25 49.8061
-10.4281 72.375 49.8061
-10.4281 96.5 49.8061
-10.4281 120.625 49.8061
-10.4281 144.75 49.8061
-10.4281 168.875 49.8062
-10.4281 193 49.8062
-2.8295 193 49.1882
41.3681 193 49.9575
41.3681 194.75 49.9575
41.3681 198.25 49.9575
41.3681 201.75 49.9575
41.3681 205.25 49.9575
4.60763 207 49.071
9.86325 207 49.2353
15.1189 207 49.3995
20.3745 207 49.5638
25.6301 207 49.728
30.8761 207 49.8045
36.1221 207 49.881
41.3681 207 49.9575
45.1958 -1.5e-05 50.378
45.1958 6.03124 50.378
45.1958 12.0625 50.378
45.1958 18.0937 50.378
45.1958 24.125 50.378
45.1958 30.1562 50.378
-10.833 33.1719 50.6683
45.1958 36.1875 50.378
45.1958 42.2187 50.378
45.1958 48.25 50.378
45.1958 54.2812 50.378
45.1958 60.3125 50.378
-10.833 63.3281 50.6684
45.1958 66.3437 50.378
45.1958 72.375 50.378
45.1958 78.4062 50.378
-10.833 81.4219 50.6684
45.1958 84.4375 50.378
45.1958 90.4687 50.378
45.1958 96.5 50.378
45.1958 102.531 50.378
45.1958 108.562 50.378
-10.833 111.578 50.6684
45.1958 114.594 50.378
45.1958 120.625 50.378
45.1958 126.656 50.378
-10.833 129.672 50.6684
45.1958 132.688 50.378
45.1958 138.719 50.378
45.1958 144.75 50.378
45.1958 150.781 50.378
45.1958 156.812 50.378
-10.833 159.828 50.6684
45.1958 162.844 50.378
45.1958 168.875 50.378
45.1958 174.906 50.378
-10.833 177.922 50.6684
45.1958 180.938 50.378
45.1958 186.969 50.378
45.1958 193 50.378
-11.2378 6.03124 51.5305
-11.2378 30.1562 51.5305
-11.2378 42.2187 51.5305
-11.2378 54.2812 51.5305
-11.2378 66.3437 51.5305
-11.2378 78.4062 51.5305
-11.2378 90.4687 51.5305
-11.2378 102.531 51.5305
-11.2378 114.594 51.5306
-11.2378 126.656 51.5306
-11.2378 138.719 51.5306
-11.2378 150.781 51.5306
-11.2378 162.844 51.5306
-11.2378 174.906 51.5306
-11.2378 186.969 51.5306
-6.54375 193 51.7498
1.20763 193 51.0472
37.6216 193 51.0319
43.9813 3.01561 52.9651
44.3861 6.03124 52.1027
44.3861 18.0937 52.1028
43.9813 21.1094 52.9651
-11.6426 27.1406 52.3927
44.3861 30.1562 52.1028
44.3861 42.2187 52.1028
44.3861 54.2812 52.1028
44.3861 66.3437 52.1028
43.9813 69.3594 52.9651
-11.6426 75.3906 52.3927
44.3861 78.4062 52.1028
44.3861 90.4687 52.1028
44.3861 102.531 52.1028
44.3861 114.594 52.1028
43.9813 117.609 52.9651
-11.6426 123.641 52.3928
44.3861 126.656 52.1028
44.3861 138.719 52.1028
44.3861 150.781 52.1028
44.3861 162.844 52.1028
43.9813 165.859 52.9652
-11.6426 171.891 52.3928
44.3861 174.906 52.1028
44.3861 186.969 52.1028
-2.398 193 52.8015
-2.398 196.5 52.8015
-2.398 203.5 52.8015
-2.398 207 52.8015
2.85763 207 52.9658
43.5764 3.01561 53.8275
-12.0474 6.03124 53.2549
43.5764 6.03124 53.8275
43.5764 12.0625 53.8275
-12.0474 18.0937 53.255
-12.0474 36.1875 53.255
43.5764 36.1875 53.8275
-12.0474 60.3125 53.255
43.5764 60.3125 53.8275
-12.0474 84.4375 53.255
43.5764 84.4375 53.8275
-12.0474 108.562 53.255
43.5764 108.562 53.8275
-12.0474 132.688 53.255
43.5764 132.688 53.8275
-12.0474 156.812 53.255
43.5764 156.812 53.8275
-12.0474 180.938 53.255
43.5764 180.938 53.8275
-2.50662 193 53.6088
39.6278 193 53.94
39.6278 196.5 53.94
39.6278 203.5 53.94
8.11325 207 53.13
13.3689 207 53.2943
18.6245 207 53.4585
23.8801 207 53.6228
29.1357 207 53.787
34.3817 207 53.8635
39.6278 207 53.94
-12.4523 3.01561 54.1171
43.1716 3.01561 54.6899
43.1716 27.1406 54.6899
-12.8571 30.1562 54.9794
-12.8571 42.2187 54.9794
-12.4523 45.2344 54.1172
43.1716 45.2344 54.6899
-12.4523 51.2656 54.1172
43.1716 51.2656 54.6899
-12.8571 54.2812 54.9794
-12.8571 66.3437 54.9794
-12.4523 69.3594 54.1172
43.1716 75.3906 54.6899
-12.8571 78.4062 54.9794
-12.8571 90.4687 54.9794
-12.4523 93.4844 54.1172
43.1716 93.4844 54.6899
-12.4523 99.5156 54.1172
43.1716 99.5156 54.6899
-12.8571 102.531 54.9794
-12.8571 114.594 54.9794
-12.4523 117.609 54.1172
43.1716 123.641 54.6899
-12.8571 126.656 54.9794
-12.8571 138.719 54.9794
-12.4523 141.734 54.1172
43.1716 141.734 54.6899
-12.4523 147.766 54.1172
43.1716 147.766 54.6899
-12.8571 150.781 54.9794
-12.8571 162.844 54.9794
-12.4523 165.859 54.1172
43.1716 171.891 54.6899
-12.8571 174.906 54.9794
-12.8571 186.969 54.9794
-12.4523 189.984 54.1172
43.1716 189.984 54.6899
-10.1053 193 54.2268
36.853 193 54.8808
42.7668 -1.5e-05 55.5522
42.7668 6.03124 55.5522
42.7668 18.0937 55.5523
42.7668 30.1562 55.5523
42.7668 42.2187 55.5523
42.7668 54.2812 55.5523
42.7668 66.3437 55.5523
42.7668 78.4062 55.5523
42.7668 90.4687 55.5523
42.7668 102.531 55.5523
42.7668 114.594 55.5523
42.7668 126.656 55.5523
42.7668 138.719 55.5523
42.7668 150.781 55.5523
42.7668 162.844 55.5523
42.7668 174.906 55.5523
42.7668 186.969 55.5523
1.5305 193 55.4678
-13.6667 -1.5e-05 56.7038
-13.6667 6.03124 56.7038
-13.6667 12.0625 56.7038
-13.6667 18.0937 56.7038
-13.6667 24.125 56.7038
-13.6667 30.1562 56.7038
-13.6667 36.1875 56.7038
42.3619 39.2031 56.4146
-13.6667 42.2187 56.7038
-13.6667 48.25 56.7038
-13.6667 54.2812 56.7038
-13.6667 60.3125 56.7038
-13.6667 66.3437 56.7038
-13.6667 72.375 56.7038
-13.6667 78.4062 56.7038
-13.6667 84.4375 56.7038
42.3619 87.4531 56.4146
-13.6667 90.4687 56.7038
-13.6667 96.5 56.7038
-13.6667 102.531 56.7038
42.3619 105.547 56.4146
-13.6667 108.562 56.7038
-13.6667 114.594 56.7038
-13.6667 120.625 56.7038
-13.6667 126.656 56.7038
-13.6667 132.688 56.7038
42.3619 135.703 56.4146
-13.6667 138.719 56.7038
-13.6667 144.75 56.7038
-13.6667 150.781 56.7038
42.3619 153.797 56.4147
-13.6667 156.812 56.7038
-13.6667 162.844 56.7038
-13.6667 168.875 56.7038
-13.6667 174.906 56.7038
-13.6667 180.938 56.7038
42.3619 183.953 56.4147
-13.6667 186.969 56.7038
-13.6667 193 56.7038
-6.22087 193 56.1704
-4.148 193 56.6963
40.2557 193 56.4783
-4.148 194.75 56.6963
-4.148 198.25 56.6963
-4.148 201.75 56.6963
-4.148 205.25 56.6963
-4.148 207 56.6963
1.10763 207 56.8605
41.9571 6.03124 57.277
41.9571 12.0625 57.277
41.9571 18.0937 57.277
41.9571 24.125 57.277
41.9571 48.25 57.277
41.9571 72.375 57.277
41.9571 96.5 57.277
41.9571 120.625 57.277
41.9571 144.75 57.277
41.9571 168.875 57.277
37.8874 193 57.9225
41.9571 193 57.277
37.8874 194.75 57.9225
37.8874 198.25 57.9225
37.8874 201.75 57.9225
37.8874 205.25 57.9225
6.36325 207 57.0248
11.6189 207 57.189
16.8745 207 57.3533
22.1301 207 57.5175
27.3857 207 57.6818
32.6414 207 57.846
37.8874 207 57.9225
41.5523 9.04686 58.1394
-14.4764 30.1562 58.4282
41.5523 33.1719 58.1394
-14.4764 42.2187 58.4282
-14.4764 54.2812 58.4282
41.5523 57.2969 58.1394
41.5523 63.3281 58.1394
-14.4764 66.3437 58.4282
-14.4764 78.4062 58.4282
41.5523 81.4219 58.1394
-14.4764 90.4687 58.4282
-14.4764 102.531 58.4282
41.5523 111.578 58.1394
-14.4764 114.594 58.4282
-14.4764 126.656 58.4282
41.5523 129.672 58.1394
-14.4764 138.719 58.4282
-14.4764 150.781 58.4282
41.5523 159.828 58.1394
-14.4764 162.844 58.4282
-14.4764 174.906 58.4282
41.5523 177.922 58.1394
-14.4764 186.969 58.4282
-9.78238 193 58.6474
-2.18375 193 58.0294
36.0844 193 58.7297
41.1475 6.03124 59.0018
-14.8812 27.1406 59.2904
41.1475 30.1562 59.0018
41.1475 42.2187 59.0018
41.1475 54.2812 59.0018
41.1475 66.3437 59.0018
-14.8812 75.3906 59.2904
41.1475 78.4062 59.0018
41.1475 90.4687 59.0018
41.1475 102.531 59.0018
41.1475 114.594 59.0018
-14.8812 123.641 59.2904
41.1475 126.656 59.0018
41.1475 138.719 59.0018
41.1475 150.781 59.0018
41.1475 162.844 59.0018
-14.8812 171.891 59.2904
41.1475 174.906 59.0018
41.1475 186.969 59.0018
40.3378 -1.5e-05 60.7265
-15.2861 6.03124 60.1526
40.3378 9.04686 60.7265
40.3378 12.0625 60.7265
-15.2861 18.0937 60.1526
40.3378 18.0937 60.7265
-15.2861 36.1875 60.1526
40.3378 36.1875 60.7265
-15.2861 60.3125 60.1526
40.3378 60.3125 60.7265
-15.2861 84.4375 60.1526
40.3378 84.4375 60.7265
-15.2861 108.562 60.1526
40.3378 108.562 60.7265
-15.2861 132.688 60.1526
40.3378 132.688 60.7265
-15.2861 156.812 60.1526
40.3378 156.812 60.7265
-15.2861 180.938 60.1526
40.3378 180.938 60.7265
-5.898 193 60.591
-1.9265 193 60.6037
31.913 193 60.981
-5.898 200 60.591
-5.898 207 60.591
-0.642375 207 60.7553
4.61325 207 60.9195
39.933 9.04686 61.5889
39.933 27.1406 61.5889
-16.0957 30.1562 61.877
-16.0957 42.2187 61.877
-15.6909 45.2344 61.0148
39.933 45.2344 61.5889
-15.6909 51.2656 61.0148
39.933 51.2656 61.5889
-16.0957 54.2812 61.877
-16.0957 66.3437 61.877
-15.6909 69.3594 61.0148
39.933 69.3594 61.5889
39.933 75.3906 61.5889
-16.0957 78.4062 61.877
-16.0957 90.4687 61.877
-15.6909 93.4844 61.0148
39.933 93.4844 61.5889
-15.6909 99.5156 61.0148
39.933 99.5156 61.5889
-16.0957 102.531 61.877
-16.0957 114.594 61.877
-15.6909 117.609 61.0148
39.933 117.609 61.5889
39.933 123.641 61.5889
-16.0957 126.656 61.877
-16.0957 138.719 61.877
-15.6909 141.734 61.0148
39.933 141.734 61.5889
-15.6909 147.766 61.0148
39.933 147.766 61.5889
-16.0957 150.781 61.877
-16.0957 162.844 61.877
-15.6909 165.859 61.0148
39.933 165.859 61.5889
39.933 171.891 61.5889
-16.0957 174.906 61.877
-16.0957 186.969 61.877
-15.6909 189.984 61.0148
39.933 189.984 61.5889
-13.3439 193 61.1244
36.147 193 61.905
36.147 200 61.905
9.86888 207 61.0838
15.1245 207 61.248
20.3801 207 61.4123
25.6357 207 61.5765
30.8914 207 61.7408
36.147 207 61.905
39.5281 18.0937 62.4513
39.5281 30.1562 62.4513
39.5281 42.2187 62.4513
39.5281 54.2812 62.4513
39.5281 66.3437 62.4513
39.5281 78.4062 62.4513
39.5281 90.4687 62.4513
39.5281 102.531 62.4513
39.5281 114.594 62.4513
39.5281 126.656 62.4513
39.5281 138.719 62.4513
39.5281 150.781 62.4513
39.5281 162.844 62.4513
39.5281 174.906 62.4513
39.5281 186.969 62.4513
-16.9054 -1.5e-05 63.6014
-16.9054 6.03124 63.6014
39.1233 9.04686 63.3136
-16.9054 12.0625 63.6014
39.1233 15.0781 63.3136
-16.9054 18.0937 63.6014
-16.9054 24.125 63.6014
-16.9054 48.25 63.6014
-16.9054 72.375 63.6014
-16.9054 96.5 63.6014
-16.9054 120.625 63.6014
-16.9054 144.75 63.6014
-16.9054 168.875 63.6014
-16.9054 193 63.6014
-9.4595 193 63.068
-0.006749 193 63.1655
38.7185 6.03124 64.176
38.7185 12.0625 64.176
38.7185 24.125 64.176
38.7185 30.1562 64.176
-17.3102 33.1719 64.4636
38.7185 36.1875 64.176
-17.3102 39.2031 64.4636
38.7185 42.2187 64.176
38.7185 48.25 64.176
38.7185 54.2812 64.176
-17.3102 57.2969 64.4636
38.7185 60.3125 64.176
-17.3102 63.3281 64.4636
38.7185 66.3437 64.176
38.7185 72.375 64.176
38.7185 78.4062 64.176
-17.3102 81.4219 64.4636
38.7185 84.4375 64.176
-17.3102 87.4531 64.4636
38.7185 90.4687 64.176
38.7185 96.5 64.176
38.7185 102.531 64.176
-17.3102 105.547 64.4636
38.7185 108.562 64.176
-17.3102 111.578 64.4636
38.7185 114.594 64.176
38.7185 120.625 64.176
38.7185 126.656 64.176
-17.3102 129.672 64.4636
38.7185 132.688 64.176
-17.3102 135.703 64.4636
38.7185 138.719 64.176
38.7185 144.75 64.176
38.7185 150.781 64.176
-17.3102 153.797 64.4636
38.7185 156.812 64.176
-17.3102 159.828 64.4636
38.7185 162.844 64.176
38.7185 168.875 64.176
38.7185 174.906 64.176
-17.3102 177.922 64.4636
38.7185 180.938 64.176
-17.3102 183.953 64.4636
38.7185 186.969 64.176
-8.21012 193 64.9019
-4.66937 193 64.4952
38.7185 193 64.176
-8.21012 194.75 64.9019
-8.21012 198.25 64.9019
-8.21012 201.75 64.9019
-8.21012 205.25 64.9019
-8.21012 207 64.9019
-2.5565 207 64.6848
2.69913 207 64.849
37.9088 -1.5e-05 65.9008
38.3137 3.01561 65.0384
-17.715 18.0937 65.3258
37.9088 18.0937 65.9008
-17.715 30.1562 65.3258
37.9088 30.1562 65.9008
-17.715 42.2187 65.3258
37.9088 42.2187 65.9008
-17.715 54.2812 65.3258
37.9088 54.2812 65.9008
-17.715 66.3437 65.3258
37.9088 66.3437 65.9008
-17.715 78.4062 65.3258
37.9088 78.4062 65.9008
-17.715 90.4687 65.3258
37.9088 90.4687 65.9008
-17.715 102.531 65.3258
37.9088 102.531 65.9008
-17.715 114.594 65.3258
37.9088 114.594 65.9008
-17.715 126.656 65.3258
37.9088 126.656 65.9008
-17.715 138.719 65.3258
37.9088 138.719 65.9008
-17.715 150.781 65.3258
37.9088 150.781 65.9008
-17.715 162.844 65.3258
37.9088 162.844 65.9008
-17.715 174.906 65.3258
37.9088 174.906 65.9008
-17.715 186.969 65.3258
37.9088 186.969 65.9008
-13.021 193 65.545
-3.721 193 65.7272
34.2329 193 65.8345
34.2329 194.75 65.8345
34.2329 198.25 65.8345
34.2329 201.75 65.8345
34.2329 205.25 65.8345
7.95475 207 65.0133
13.2104 207 65.1775
18.466 207 65.3418
23.7216 207 65.506
28.9772 207 65.6703
34.2329 207 65.8345
-18.1199 27.1406 66.188
-18.1199 75.3906 66.188
-18.1199 123.641 66.188
-18.1199 171.891 66.188
-6.53725 193 66.4395
34.5471 193 66.4274
-18.5247 6.03124 67.0502
-18.5247 12.0625 67.0502
37.0992 12.0625 67.6255
37.0992 15.0781 67.6255
37.0992 18.0937 67.6255
-18.5247 36.1875 67.0502
37.0992 36.1875 67.6255
-18.9295 45.2344 67.9124
-18.9295 51.2656 67.9124
-18.5247 60.3125 67.0502
37.0992 60.3125 67.6255
-18.9295 69.3594 67.9124
-18.5247 84.4375 67.0502
37.0992 84.4375 67.6255
-18.9295 93.4844 67.9124
-18.9295 99.5156 67.9124
-18.5247 108.562 67.0502
37.0992 108.562 67.6255
-18.9295 117.609 67.9124
-18.5247 132.688 67.0502
37.0992 132.688 67.6255
-18.9295 141.734 67.9124
-18.9295 147.766 67.9124
-18.5247 156.812 67.0502
37.0992 156.812 67.6255
-18.9295 165.859 67.9124
-18.5247 180.938 67.0502
37.0992 180.938 67.6255
-18.9295 189.984 67.9124
36.6944 21.1094 68.4879
36.6944 27.1406 68.4879
-19.3343 30.1562 68.7746
-19.3343 42.2187 68.7746
36.6944 45.2344 68.4879
36.6944 51.2656 68.4879
-19.3343 54.2812 68.7746
-19.3343 66.3437 68.7746
36.6944 69.3594 68.4879
36.6944 75.3906 68.4879
-19.3343 78.4062 68.7746
-19.3343 90.4687 68.7746
36.6944 93.4844 68.4879
36.6944 99.5156 68.4879
-19.3343 102.531 68.7746
-19.3343 114.594 68.7746
36.6944 117.609 68.4879
36.6944 123.641 68.4879
-19.3343 126.656 68.7746
-19.3343 138.719 68.7746
