ply
format ascii 1.0
comment Generated by Slim Ghodhbane
element vertex 1830
property double x
property double y
property double z
end_header
-0.558333 0.92745 -4.01427
-0.45288 0.940366 -4.00948
-0.695026 1.27013 -4.01555
-0.459086 1.13088 -4.01141
-0.776628 1.5466 -4.00914
-0.426577 4.4856 -4.00224
-0.63555 4.80915 -4.04652
-0.333301 4.79667 -4.03786
-1.06036 5.3918 -4.0744
-0.741075 5.25415 -4.12829
-0.244487 5.24365 -4.08101
0.020968 5.33446 -4.01316
-1.20139 5.76394 -4.12748
-0.754153 5.73587 -4.19483
-0.239877 5.74803 -4.11164
0.009859 5.60943 -4.00162
-1.56323 6.34957 -4.04222
-1.24753 6.24488 -4.20449
-0.759337 6.25273 -4.2439
-0.289688 6.25305 -4.12873
-1.59441 6.76445 -4.11199
-1.26342 6.75876 -4.25306
-0.745105 6.77838 -4.25849
-0.382936 6.7133 -4.11056
-1.61968 7.24173 -4.13141
-1.24034 7.26514 -4.2755
-0.737651 7.2417 -4.21512
-0.454102 7.03953 -4.03935
-1.61955 7.74411 -4.13759
-1.2578 7.75002 -4.28865
-0.744428 7.73664 -4.20716
-1.62906 8.25019 -4.13625
-1.26183 8.25234 -4.29414
-0.763658 8.24722 -4.21717
-1.63134 8.74321 -4.12019
-1.2618 8.74739 -4.28888
-0.775175 8.76169 -4.21701
-1.63126 9.23748 -4.11141
-1.25728 9.25782 -4.27402
-0.787184 9.23649 -4.20395
-1.61855 9.73077 -4.09766
-1.24049 9.75344 -4.24936
-0.822893 9.74378 -4.16915
-1.60287 10.2632 -4.07438
-1.24168 10.2615 -4.18003
-0.904307 10.1871 -4.11165
-1.56936 10.6235 -4.03789
-1.30253 10.7024 -4.06909
-0.569331 0.408465 -3.58476
-0.237881 0.326382 -3.66113
0.153192 0.383022 -3.60794
-1.06054 0.9495 -3.56681
-0.729644 0.750229 -3.74267
-0.25906 0.751772 -3.91308
0.252505 0.759413 -3.70466
0.530993 0.906166 -3.53549
-1.15454 1.26239 -3.71916
-0.858571 1.23196 -3.94044
-0.242636 1.26337 -3.9495
0.250929 1.25228 -3.76786
0.562186 1.29401 -3.5802
-1.51953 1.86281 -3.5549
-1.25037 1.74532 -3.82814
-0.741191 1.78 -3.97477
-0.252185 1.74485 -3.90315
0.230855 1.73814 -3.74511
0.640995 1.77187 -3.58034
-1.55029 2.29578 -3.59311
-1.28131 2.24648 -3.84056
-0.751876 2.2549 -3.92573
-0.253521 2.25173 -3.86342
0.250147 2.24922 -3.78499
0.677026 2.27131 -3.62958
-1.5574 2.72065 -3.58436
-1.2593 2.7426 -3.83369
-0.751646 2.73654 -3.88242
-0.279584 2.76745 -3.86684
0.224205 2.75078 -3.8231
0.692511 2.75322 -3.62621
-1.53681 3.25284 -3.59341
-1.26218 3.24174 -3.81873
-0.7599 3.25717 -3.86282
-0.243027 3.24855 -3.88308
0.243915 3.24982 -3.80889
0.671556 3.24954 -3.62736
-1.53632 3.72947 -3.55695
-1.27409 3.75224 -3.78069
-0.743762 3.75377 -3.8424
-0.239249 3.73758 -3.87636
0.252253 3.74625 -3.8069
0.688825 3.74788 -3.6233
-1.52335 4.29046 -3.531
-1.27074 4.2465 -3.76229
-0.76103 4.22554 -3.85479
-0.241864 4.23558 -3.93423
0.285737 4.27553 -3.79499
0.546726 4.18783 -3.58792
-1.52099 4.78042 -3.54782
-1.27102 4.73575 -3.77214
-0.84994 4.68695 -3.91237
-0.13375 4.68176 -3.97937
0.280376 4.76507 -3.77619
-1.55849 5.24222 -3.57376
-1.28089 5.23949 -3.8134
-0.982449 5.06174 -3.96241
0.215923 5.24974 -3.77254
-1.56706 5.76771 -3.61812
-1.40552 5.68291 -3.82733
-0.0175903 5.9028 -3.94833
0.136586 5.73488 -3.7356
-1.64766 6.26927 -3.7413
-0.0749335 6.2843 -3.8639
0.0574459 6.21675 -3.64475
-1.76255 6.7582 -3.74403
-0.179582 6.76238 -3.76366
0.010877 6.56766 -3.51181
-1.81664 7.25743 -3.74931
-0.521822 7.4137 -3.96919
-0.34919 7.22237 -3.7387
-1.82777 7.75112 -3.7607
-0.515415 7.70785 -3.97385
-0.387076 7.75401 -3.72127
-1.85223 8.24113 -3.74706
-0.525501 8.27102 -3.94279
-0.403335 8.24634 -3.7063
-1.86138 8.73397 -3.74818
-0.535227 8.76202 -3.91968
-0.420037 8.74442 -3.65242
-1.86483 9.25873 -3.76399
-0.552207 9.2834 -3.87104
-0.434802 9.26211 -3.60583
-1.86918 9.75768 -3.74928
-0.597008 9.76416 -3.8001
-0.360342 9.73944 -3.55199
-1.8526 10.2409 -3.75796
-0.707378 10.2655 -3.76784
-0.449597 10.1006 -3.55918
-1.77434 10.775 -3.76228
-1.14606 10.8489 -3.8684
-0.872536 10.6678 -3.69036
-1.67723 11.1924 -3.68147
-1.3175 11.2009 -3.71044
-0.645937 -0.0337918 -3.10484
-0.263621 -0.0335268 -3.24274
0.1498 -0.0345471 -3.11686
-1.02774 0.44004 -3.0707
-0.739906 0.175805 -3.2538
-0.245832 0.0441054 -3.42562
0.274287 0.140921 -3.28067
0.582358 0.391848 -3.08842
-1.17939 0.78292 -3.19228
-0.898648 0.613788 -3.36915
0.477137 0.575933 -3.45146
0.683093 0.761891 -3.22508
-1.56724 1.43045 -3.10428
-1.36466 1.18077 -3.27048
0.820057 1.26438 -3.26595
1.01483 1.43312 -3.05142
-1.63249 1.77086 -3.22301
-1.45375 1.5466 -3.43316
0.865096 1.69501 -3.39179
1.08212 1.78153 -3.13904
-1.71487 2.2407 -3.25616
0.949603 2.27781 -3.43939
1.13491 2.23451 -3.19408
-1.71869 2.75777 -3.25242
0.936123 2.74832 -3.46115
1.17412 2.73306 -3.20887
-1.70049 3.25882 -3.25754
0.940182 3.24191 -3.46131
1.21483 3.26151 -3.21444
-1.66784 3.74767 -3.26027
0.887292 3.86588 -3.36978
1.15478 3.71923 -3.20495
-1.64809 4.25345 -3.24195
0.738139 4.26704 -3.27737
1.15761 4.22253 -3.08497
-1.67039 4.76531 -3.24696
0.473177 4.82222 -3.44009
0.711651 4.73715 -3.19567
1.13871 4.71382 -3.05382
-1.70484 5.25599 -3.24983
0.428035 5.27602 -3.3187
0.745231 5.2317 -3.11133
1.08997 5.20391 -3.03204
-1.7317 5.75785 -3.2531
0.339539 5.76073 -3.27389
0.763839 5.77068 -3.07426
1.04262 5.58069 -3.01559
-1.71407 6.25323 -3.24168
0.256803 6.25826 -3.23931
0.712761 6.22835 -3.06294
-1.76406 6.75813 -3.24884
-0.0347418 6.86198 -3.3907
0.193588 6.73147 -3.20037
0.678715 6.73969 -3.06276
-1.83031 7.23028 -3.26103
-0.151945 7.25545 -3.33723
0.24874 7.23906 -3.16
0.692684 7.24317 -3.06839
-1.89057 7.76491 -3.26263
-0.179855 7.76326 -3.33137
0.243144 7.74458 -3.21397
0.735464 7.75968 -3.09182
-1.93355 8.24687 -3.25817
-0.203367 8.26762 -3.37096
0.246166 8.23666 -3.27329
0.698733 8.23061 -3.12555
-1.9717 8.74766 -3.24294
-0.199879 8.77636 -3.41818
0.288203 8.75906 -3.27376
0.559795 8.65048 -3.11652
-2.00356 9.37445 -3.30524
-1.97154 9.23435 -3.23222
-0.175802 9.22832 -3.45762
0.215124 9.2531 -3.23359
-2.0111 9.82151 -3.20147
-1.97996 9.69166 -3.28345
-0.139102 9.81223 -3.35384
0.0800347 9.67337 -3.14381
-2.02502 10.2548 -3.17642
-1.98053 10.3191 -3.41905
-0.538239 10.3969 -3.44721
-0.289024 10.2374 -3.22575
-2.01823 10.7071 -3.11943
-1.95381 10.7912 -3.33513
-0.673931 10.7795 -3.27581
-0.434946 10.6095 -3.10193
-1.84548 11.2642 -3.25056
-1.13012 11.3404 -3.3216
-0.869843 11.1573 -3.17876
-1.65544 11.5785 -3.19138
-1.30395 11.6107 -3.17828
-1.11339 -0.0350631 -2.63723
-0.855623 -0.0383959 -2.89829
0.379403 -0.0367775 -2.80661
0.537339 -0.0285361 -2.61257
-1.21183 0.191658 -2.72592
-0.953975 0.0429079 -2.95611
0.461944 0.0362581 -2.91991
0.660615 0.183386 -2.70833
-1.55687 0.847294 -2.62845
-1.38232 0.708628 -2.82243
0.861052 0.756109 -2.77177
-1.6507 1.24487 -2.75846
-1.47508 1.04519 -2.9303
0.963474 1.15126 -2.85732
1.076 1.33193 -2.70724
-1.8347 1.76529 -2.74208
1.18094 1.74506 -2.76455
-2.01571 2.31196 -2.534
-1.91128 2.25417 -2.77257
1.29025 2.23311 -2.7522
-2.01335 2.77794 -2.51616
-1.91334 2.76033 -2.76744
1.38319 2.74555 -2.74721
-2.00286 3.10853 -2.51547
-1.90018 3.26074 -2.75285
1.43537 3.20937 -2.79237
1.52915 3.40369 -2.57207
-1.86437 3.74649 -2.7572
1.41908 3.72494 -2.87969
1.56616 3.76737 -2.61919
-1.84364 4.24839 -2.76204
1.40847 4.28032 -2.9187
1.59887 4.28029 -2.66191
-1.8581 4.7549 -2.75221
1.37517 4.76613 -2.90721
1.60425 4.74002 -2.63837
-1.86864 5.22704 -2.74401
1.33974 5.25366 -2.86755
1.57395 5.22947 -2.60099
-2.00303 5.75978 -2.51121
-1.91185 5.77162 -2.75846
1.30327 5.75966 -2.80659
1.53116 5.67679 -2.55933
-1.87904 6.24381 -2.75888
0.956453 6.31936 -2.98024
1.26671 6.24259 -2.73395
-1.87041 6.73886 -2.75562
0.929008 6.77843 -2.96
1.19634 6.73051 -2.71797
-1.91304 7.23726 -2.73524
0.935671 7.22418 -2.93696
1.17363 7.21947 -2.70987
-1.94516 7.74862 -2.76016
0.954192 7.71245 -2.97782
1.19269 7.74945 -2.72819
-2.01202 8.31068 -2.58353
-1.96476 8.20991 -2.80367
0.890265 8.29365 -2.79614
1.08977 8.09711 -2.60826
-2.01675 8.76868 -2.59023
-1.97764 8.76012 -2.83891
0.695327 8.74942 -2.75159
-2.02358 9.2588 -2.59343
-1.97258 9.2794 -2.81662
0.425279 9.31933 -2.85172
0.567688 9.19473 -2.64924
-2.03024 9.78175 -2.73228
-1.98894 9.58762 -2.91417
0.269201 9.76768 -2.75601
-2.06851 10.2538 -2.73774
-0.0884496 10.3335 -2.86621
0.129992 10.1781 -2.66895
-2.06754 10.7547 -2.74103
-0.538104 10.9354 -2.95846
-0.234918 10.7634 -2.75051
0.0352484 10.5989 -2.54454
-2.02439 11.1082 -2.71522
-1.93328 11.3369 -2.80083
-0.685939 11.2971 -2.85132
-0.34276 11.2153 -2.62396
-1.72912 11.6505 -2.74747
-1.23605 11.751 -2.77428
-0.790434 11.6228 -2.67793
-0.388039 11.5067 -2.51296
0.404982 11.9695 -2.52252
0.507627 11.9313 -2.51454
-0.618127 12.4491 -2.51603
-0.220104 12.3322 -2.53721
0.188684 12.1975 -2.53238
0.556412 12.0103 -2.50297
-0.565101 12.5338 -2.50576
-0.25632 12.5257 -2.50729
-1.51693 13.9645 -2.53028
-1.22887 13.8715 -2.75395
-0.776098 13.8768 -2.71187
-1.53225 14.2119 -2.64186
-1.26819 14.2479 -2.83708
-0.752998 14.2386 -2.78162
-0.473673 14.2757 -2.61839
-1.54226 14.707 -2.59938
-1.25486 14.7365 -2.71806
-0.75008 14.7461 -2.64191
-0.484169 14.5781 -2.53342
-1.5245 15.2589 -2.5208
-1.26558 15.2422 -2.61607
-0.81693 15.2341 -2.561
-1.51021 15.6511 -2.50396
-1.29842 15.6968 -2.53847
-0.927205 15.612 -2.52106
-1.36413 16.0112 -2.51251
-1.36902 -0.0337553 -2.28213
0.655886 -0.0341676 -2.2534
-1.58424 0.23993 -2.16591
-1.43759 0.13577 -2.38914
0.801174 0.19358 -2.25911
-1.70412 0.757676 -2.24604
0.947536 0.654025 -2.28186
1.05478 0.871862 -2.16036
-2.02238 1.41254 -2.08535
-1.87596 1.23447 -2.26069
1.163 1.24006 -2.24395
-2.06626 1.79452 -2.20729
-1.96553 1.66898 -2.39649
1.29087 1.73757 -2.24262
-2.11847 2.23927 -2.2504
1.39294 2.24155 -2.25752
-2.10234 2.74943 -2.25904
1.45444 2.70225 -2.3086
1.52895 2.90901 -2.12855
-2.07133 3.24859 -2.23388
-1.99667 3.37923 -2.44597
1.485 3.03113 -2.43033
1.58178 3.26581 -2.24107
-2.03732 3.7326 -2.17343
-1.97393 3.76693 -2.43043
1.66144 3.73842 -2.25835
-2.02588 4.2474 -2.12966
-1.96344 4.26656 -2.37401
1.74289 4.24578 -2.23102
-2.0272 4.77401 -2.0952
-1.96993 4.76049 -2.34622
1.76285 4.74726 -2.26162
-2.03066 5.28391 -2.12085
-1.97541 5.21696 -2.34388
1.72586 5.24326 -2.26081
-2.05438 5.77565 -2.21678
-1.98952 5.71048 -2.41241
1.65696 5.73912 -2.25366
-2.04256 6.24202 -2.19953
-1.9792 6.28689 -2.43238
1.4573 6.36292 -2.42311
1.57547 6.22298 -2.21316
-2.01849 6.74126 -2.09519
-1.96066 6.74226 -2.3325
1.42897 6.79452 -2.28978
1.52568 6.62903 -2.09941
-2.01523 7.24667 -2.12843
-1.97701 7.20309 -2.34458
1.38488 7.2777 -2.25373
-2.03747 7.79354 -2.21001
-1.98744 7.63318 -2.43946
1.37878 7.75509 -2.2461
-2.05398 8.24994 -2.24578
0.96957 8.44756 -2.42848
1.16618 8.22825 -2.25066
-2.062 8.72453 -2.25893
0.891986 8.78251 -2.27148
1.0333 8.58325 -2.10118
-2.07324 9.25692 -2.24638
0.72165 9.25112 -2.26869
-2.0798 9.7571 -2.24738
0.453359 9.85808 -2.37306
0.600202 9.71716 -2.18692
-2.10242 10.2317 -2.25225
0.353512 10.2528 -2.31134
0.549873 10.2133 -2.0559
-2.12513 10.7344 -2.26123
-0.008721 10.8977 -2.4825
0.251258 10.7506 -2.27679
0.524511 10.7455 -2.02075
-2.06368 11.2268 -2.23038
-1.97315 11.4534 -2.32901
-0.104925 11.2961 -2.42196
0.237301 11.2425 -2.24268
0.683329 11.3476 -2.05358
1.25008 11.462 -2.04122
-1.76236 11.7241 -2.236
-1.26765 11.9079 -2.33273
-0.743441 11.8718 -2.41543
-0.263251 11.7622 -2.4017
0.228241 11.7369 -2.32843
0.750781 11.7473 -2.33141
1.20403 11.7185 -2.14976
-1.22093 12.2214 -2.16708
-0.743433 12.2332 -2.36693
-0.283606 12.1023 -2.4103
0.324692 12.3034 -2.47155
0.774853 12.2538 -2.34782
1.09341 12.2181 -2.10581
-1.2358 12.7569 -2.22353
-0.76036 12.759 -2.42413
-0.251521 12.7814 -2.46073
0.254994 12.7373 -2.4257
0.769202 12.7306 -2.25534
1.03634 12.7157 -2.03186
-1.21995 13.2113 -2.16902
-0.756401 13.2449 -2.35184
-0.247513 13.2376 -2.40522
0.259272 13.252 -2.37442
0.758507 13.2415 -2.21696
1.0154 13.0328 -2.00613
-1.53669 13.9476 -2.38418
-1.31081 13.7191 -2.24106
-0.697966 13.6681 -2.38689
-0.232059 13.7728 -2.37165
0.260746 13.7509 -2.35399
0.748868 13.7587 -2.21214
-1.57171 14.2506 -2.26862
-1.48362 14.0384 -2.06605
-0.249236 14.2586 -2.38174
0.250605 14.2524 -2.34848
0.740641 14.2483 -2.20245
-1.59459 14.7482 -2.25687
-0.521078 14.8842 -2.44133
-0.264632 14.7517 -2.35796
0.234789 14.765 -2.33492
0.684051 14.7326 -2.1963
-1.59748 15.2551 -2.26115
-0.580807 15.2981 -2.38865
-0.2562 15.226 -2.31886
0.263697 15.2575 -2.29827
0.593537 15.1939 -2.15224
-1.60313 15.7453 -2.23595
-1.16834 15.8861 -2.4769
-0.716078 15.7759 -2.38341
-0.237926 15.7436 -2.2736
0.247275 15.7136 -2.20096
0.52641 15.518 -2.00229
-1.61088 16.2426 -2.20643
-1.2613 16.2614 -2.44583
-0.751649 16.2517 -2.32187
-0.264847 16.2597 -2.1793
0.104059 16.1155 -2.11007
-1.61496 16.7575 -2.21258
-1.25464 16.7474 -2.37388
-0.774327 16.7482 -2.23051
-0.408877 16.7617 -2.09894
-1.61463 17.2363 -2.19225
-1.24927 17.2524 -2.26472
-0.745834 17.256 -2.14707
-0.284576 17.2273 -2.03697
-1.57376 17.608 -2.10729
-1.27445 17.703 -2.15052
-0.865173 17.6592 -2.09906
-0.454077 17.5242 -2.0009
-1.60426 -0.0346543 -1.74819
0.761022 -0.0363716 -1.78616
-1.74786 0.212229 -1.75936
0.894414 0.166367 -1.74897
1.01782 0.461655 -1.53708
-2.04306 0.875303 -1.5855
-1.90567 0.739281 -1.8044
0.990281 0.57816 -1.94197
1.1219 0.785732 -1.71858
-2.11364 1.26927 -1.74045
-1.97626 1.08907 -1.93806
1.25059 1.24422 -1.72824
-2.21058 1.75844 -1.75199
1.36866 1.75211 -1.7565
-2.30875 2.25095 -1.73798
1.45996 2.22989 -1.76355
1.51084 2.45862 -1.57395
-2.26529 2.75587 -1.74599
1.48825 2.54171 -1.9001
1.57564 2.79545 -1.72686
-2.19561 3.23956 -1.74713
1.66264 3.24008 -1.74856
-2.1404 3.74545 -1.75111
1.75918 3.76447 -1.73861
-2.1081 4.24415 -1.75171
1.83594 4.24987 -1.737
-2.11082 4.75375 -1.74045
1.88331 4.77236 -1.76893
-2.11311 5.237 -1.73286
1.86208 5.24432 -1.76271
-2.15061 5.75755 -1.736
1.79288 5.74796 -1.75422
-2.16137 6.25343 -1.74021
1.70466 6.24015 -1.75888
-2.10602 6.75483 -1.73933
1.48891 6.95729 -1.99529
1.5975 6.73564 -1.74995
-2.07521 7.24733 -1.75914
1.45017 7.32573 -1.81619
1.52726 7.12578 -1.63392
-2.09428 7.74053 -1.76181
1.36421 7.75985 -1.76172
-2.11552 8.25463 -1.74848
1.22837 8.23978 -1.74487
-2.12848 8.75611 -1.73935
0.97222 8.9072 -1.93432
1.08904 8.7357 -1.72456
-2.13085 9.24899 -1.76819
0.920754 9.26681 -1.77786
1.02618 9.12659 -1.57373
-2.11355 9.73386 -1.73593
0.807129 9.73451 -1.75444
-2.16197 10.2457 -1.75087
0.759057 10.2735 -1.7406
-2.16433 10.7351 -1.75241
0.770179 10.7419 -1.76582
1.08046 10.8846 -1.51346
-2.0933 11.2384 -1.73175
-1.99466 11.4698 -1.90598
0.813002 11.1609 -1.88054
1.23898 11.2749 -1.76178
1.71738 11.3594 -1.67764
-2.02229 11.5321 -1.63326
-1.83376 11.7832 -1.75649
1.42043 11.8343 -1.88506
1.63256 11.7319 -1.6715
-1.61438 12.2285 -1.69772
-1.45429 12.2958 -1.92783
1.3485 12.2718 -1.77349
1.54122 12.1546 -1.57063
-1.54195 12.737 -1.66461
-1.45205 12.7765 -1.89201
1.26285 12.7568 -1.74773
-1.53719 13.2195 -1.56776
-1.45685 13.2438 -1.84214
0.987444 13.3962 -1.97994
1.21936 13.2529 -1.73005
1.54021 13.2061 -1.51012
-1.50863 13.7409 -1.54265
-1.45829 13.7639 -1.77777
0.975923 13.7618 -1.95451
1.14343 13.7445 -1.70772
-1.51697 14.389 -1.9791
-1.45892 14.2453 -1.74246
0.948301 14.2947 -1.90823
1.08648 14.2377 -1.65744
-1.53178 14.7684 -1.95949
-1.46883 14.7552 -1.72083
0.898412 14.7905 -1.79222
1.04563 14.6506 -1.56511
-1.52651 15.3192 -1.78277
-1.48986 15.154 -1.70047
0.748241 15.2407 -1.74791
-1.54718 15.7482 -1.73609
0.404366 15.8548 -1.78734
0.571097 15.6323 -1.68884
-1.57224 16.2592 -1.73308
-0.227669 16.4092 -1.75322
0.195505 16.1487 -1.75084
-1.61408 16.7573 -1.76024
-0.316357 16.7399 -1.7661
-1.63316 17.2412 -1.74423
-0.646317 17.4848 -1.99841
-0.0973191 17.2107 -1.8933
0.119182 17.315 -1.7635
-1.56847 17.6718 -1.72603
-1.30725 17.911 -1.82393
-0.697377 17.8081 -1.94215
-0.252777 17.7631 -1.86845
0.13301 17.6962 -1.65041
-1.20828 18.1299 -1.66526
-0.748572 18.1885 -1.74008
-0.302219 18.1388 -1.6618
-1.76278 -0.0359751 -1.25065
0.845736 -0.0276877 -1.24487
-2.03489 0.403542 -1.0729
-1.90092 0.168887 -1.24121
0.942835 0.110602 -1.26128
1.04706 0.378588 -1.14465
-2.14909 0.7883 -1.21056
-1.9811 0.5616 -1.43601
1.16941 0.759875 -1.24548
-2.28137 1.23913 -1.23445
1.29737 1.23796 -1.24697
-2.39112 1.76552 -1.25214
1.40745 1.75237 -1.25422
-2.51545 2.25433 -1.09224
-2.44217 2.28122 -1.31036
1.47759 2.14714 -1.26333
1.53397 2.38708 -1.19029
-2.4028 2.74577 -1.26054
1.61059 2.74358 -1.26237
-2.30811 3.24792 -1.25541
1.72047 3.2542 -1.24806
-2.25264 3.74677 -1.25451
1.81648 3.75566 -1.24077
-2.22289 4.25286 -1.2528
1.89745 4.23597 -1.2596
-2.22099 4.75816 -1.25642
1.95199 4.75451 -1.26219
-2.23504 5.26044 -1.24526
1.93514 5.24136 -1.26163
-2.24631 5.74299 -1.23853
1.87344 5.75966 -1.23863
-2.25845 6.27003 -1.25491
1.7892 6.25444 -1.25756
-2.21455 6.73814 -1.25825
1.67945 6.7779 -1.24789
-2.16694 7.23691 -1.25573
1.48768 7.46404 -1.41027
1.5658 7.24303 -1.22492
-2.19852 7.7493 -1.24474
1.43309 7.75054 -1.27103
1.50597 7.54802 -1.1144
-2.18492 8.24556 -1.25879
1.3086 8.24896 -1.25045
-2.16669 8.76003 -1.23977
1.19185 8.75427 -1.23209
-2.19263 9.2497 -1.26035
0.990333 9.44197 -1.45997
1.08952 9.2371 -1.25274
-2.20256 9.74189 -1.26204
0.955917 9.76193 -1.42877
1.07748 9.75947 -1.15795
-2.207 10.2306 -1.25323
0.961898 10.2515 -1.42186
1.08437 10.2514 -1.20688
-2.18351 10.7767 -1.25059
1.23163 10.7662 -1.25247
-2.08801 11.244 -1.25459
1.37916 11.0827 -1.38447
1.83652 11.2395 -1.31819
2.07725 11.2932 -1.14524
-2.02396 11.5794 -1.13317
-1.8971 11.7853 -1.27293
1.86885 11.7599 -1.27233
2.02697 11.6017 -1.0667
-1.73697 12.2419 -1.25894
1.71065 12.2397 -1.27242
-1.64255 12.7326 -1.24805
1.48289 12.8979 -1.48507
1.68656 12.7503 -1.22899
-1.60142 13.2426 -1.25289
1.45784 13.3073 -1.48099
1.77074 13.2694 -1.25309
-1.56402 13.7428 -1.23897
-1.49539 13.9915 -1.4772
1.39583 13.7987 -1.29977
1.61479 13.6428 -1.12449
-1.54087 14.2347 -1.20329
-1.4808 14.306 -1.44577
1.30687 14.2592 -1.30276
1.58455 14.322 -1.13392
-1.54599 14.7729 -1.16912
-1.47845 14.7073 -1.4106
0.983574 14.9436 -1.4866
1.23023 14.7589 -1.23683
1.7328 14.753 -1.14005
2.00783 14.719 -1.0034
-1.54749 15.2462 -1.26106
0.902486 15.272 -1.29427
1.09699 15.0898 -1.1225
1.65719 15.0174 -1.04337
-1.5844 15.7445 -1.24842
0.461729 15.9569 -1.3852
0.665801 15.7166 -1.23127
-1.62346 16.2368 -1.24257
-0.25566 16.4118 -1.25292
0.248015 16.2023 -1.24714
0.504351 16.0189 -1.07459
-1.66531 16.7559 -1.25207
-0.285785 16.7175 -1.24193
0.025632 16.9921 -1.03846
-1.66805 17.2461 -1.25439
-0.0342656 17.0297 -1.37899
0.193202 17.2817 -1.24266
-1.64649 17.7413 -1.25625
0.304656 17.7639 -1.25342
-1.5615 18.1118 -1.18046
-1.31504 18.2538 -1.27486
-0.761149 18.3621 -1.28118
-0.216995 18.2917 -1.27276
0.112341 18.0884 -1.16525
-2.02352 -0.00362242 -0.614965
-1.91122 -0.0361322 -0.762552
0.859255 -0.0306128 -0.746835
-2.0924 0.23061 -0.726724
-1.9752 0.0453151 -0.884817
0.948243 0.0607463 -0.745775
1.07049 0.34483 -0.72233
-2.27097 0.775504 -0.743884
1.18412 0.741266 -0.744331
-2.51638 1.47546 -0.620734
-2.42678 1.23737 -0.75446
1.31872 1.27021 -0.742415
-2.55254 1.7773 -0.707609
-2.4802 1.66358 -0.943353
1.42281 1.76424 -0.744223
-2.55433 2.26253 -0.743755
1.4822 2.09056 -0.800698
1.54749 2.34227 -0.724704
-2.52354 2.65479 -0.659275
-2.45486 2.80314 -0.823633
1.63571 2.75403 -0.771818
-2.41108 3.24521 -0.743939
1.74325 3.25198 -0.750029
-2.36442 3.74444 -0.742439
1.83762 3.74312 -0.741354
-2.32977 4.24161 -0.751379
1.93368 4.25741 -0.7564
-2.3162 4.75004 -0.754439
1.98624 4.74484 -0.792779
2.00672 4.84457 -0.588062
-2.30416 5.2453 -0.748103
1.97657 5.2717 -0.785243
2.00378 5.05779 -0.619176
-2.30628 5.7456 -0.733441
1.91812 5.74556 -0.749516
-2.3309 6.24599 -0.754788
1.83983 6.24776 -0.74829
-2.29299 6.76593 -0.747599
1.73331 6.75368 -0.749834
-2.28592 7.25762 -0.761505
1.62085 7.24105 -0.75956
-2.22234 7.74947 -0.753916
1.46758 7.84655 -0.791768
1.52978 7.62602 -0.715442
-2.1969 8.24365 -0.765014
1.37585 8.24907 -0.737414
-2.23368 8.74478 -0.748056
1.27548 8.75026 -0.74355
-2.21032 9.24691 -0.751346
1.19269 9.24597 -0.750742
-2.22295 9.75246 -0.74329
1.20317 9.76304 -0.735486
-2.21487 10.2491 -0.744923
1.24256 10.2414 -0.780085
-2.19308 10.737 -0.760232
1.41699 10.687 -0.813496
1.64992 10.9099 -0.717917
-2.12981 11.2517 -0.742757
1.79517 11.0263 -0.94742
2.1999 11.2449 -0.737144
-2.03489 11.5663 -0.743092
-1.93829 11.7983 -0.741686
1.96229 11.9638 -0.941054
2.09687 11.744 -0.759788
-1.8261 12.2587 -0.750055
1.92833 12.2877 -0.847082
2.03432 12.1477 -0.62566
-1.73893 12.7483 -0.732828
1.92209 12.6813 -0.818283
2.03934 12.8282 -0.601499
-1.68762 13.2339 -0.769143
1.96174 13.2715 -0.960086
2.09987 13.2924 -0.734289
-1.64551 13.7509 -0.740576
1.76739 13.7635 -0.75182
2.0575 13.547 -0.651196
-1.61355 14.2577 -0.751572
1.80298 14.2271 -0.785163
2.1226 14.3466 -0.603803
-1.62355 14.7547 -0.720857
1.17573 14.9922 -0.988517
1.93556 14.701 -0.937709
2.25052 14.7667 -0.756291
2.52141 14.8167 -0.521593
-1.64496 15.2527 -0.740213
0.968749 15.4152 -0.878487
1.23014 15.2611 -0.791122
1.73936 15.2288 -0.744368
2.14712 15.115 -0.64186
-1.67873 15.7469 -0.75441
0.805427 15.7744 -0.760454
1.18275 15.6887 -0.605664
1.54385 15.5558 -0.535334
-1.73234 16.2422 -0.734922
-0.155333 16.4662 -0.922698
0.339132 16.3228 -0.774461
0.687143 16.1734 -0.603702
-1.78833 16.7273 -0.745021
-0.169789 16.6721 -0.813964
0.20232 16.7631 -0.665514
0.567099 16.5705 -0.514231
-1.80356 17.2625 -0.752887
0.294989 17.2382 -0.758798
-1.77772 17.7398 -0.758303
0.428824 17.7839 -0.778177
0.516394 17.6849 -0.592809
-1.64911 18.1162 -0.753316
-1.30734 18.3061 -0.729408
-0.726556 18.4053 -0.755167
-0.198164 18.4065 -0.742625
0.199775 18.1693 -0.699034
-2.05872 -0.03189 -0.233328
-1.99676 -0.0428849 -0.43843
0.85282 -0.0336375 -0.290623
-2.21453 0.207123 -0.24247
0.947722 0.0723312 -0.245709
1.04935 0.328896 -0.289113
-2.5048 0.889785 -0.0158489
-2.39552 0.75708 -0.265115
1.17865 0.750571 -0.245807
-2.56712 1.28769 -0.172586
-2.46368 1.12916 -0.354128
1.29816 1.26177 -0.263292
-2.64982 1.75999 -0.25974
1.4223 1.75059 -0.242958
-2.62571 2.26024 -0.246229
1.48681 2.08107 -0.167956
1.5451 2.30738 -0.254204
-2.5534 2.75226 -0.244153
1.63593 2.75215 -0.267269
-2.51748 3.16184 -0.262181
-2.4872 3.35091 -0.221643
1.7336 3.25839 -0.257953
-2.45213 3.75029 -0.25967
1.82729 3.7354 -0.244226
-2.42315 4.25746 -0.254642
1.93009 4.25568 -0.259952
-2.40688 4.76488 -0.24938
1.98575 4.71814 -0.232716
2.00515 4.87035 -0.390724
-2.35812 5.23714 -0.25494
1.9854 5.27582 -0.21357
2.00482 5.0678 -0.316643
-2.3349 5.73536 -0.235153
1.93629 5.74469 -0.268529
-2.38122 6.2581 -0.242836
1.84832 6.25955 -0.248857
-2.33635 6.75204 -0.231709
1.7578 6.73966 -0.251016
-2.30902 7.25386 -0.272056
1.65058 7.23091 -0.231434
-2.21142 7.74723 -0.243617
1.48537 7.92612 -0.259194
1.54427 7.68291 -0.253003
-2.18062 8.25302 -0.248498
1.40711 8.25243 -0.243635
-2.24703 8.78586 -0.270398
1.32236 8.7657 -0.240272
-2.22802 9.26609 -0.248554
1.25731 9.26609 -0.256229
-2.22935 9.73701 -0.266812
1.25336 9.7298 -0.260286
-2.21202 10.256 -0.262176
1.36684 10.2417 -0.216642
-2.19058 10.7314 -0.243223
1.47677 10.5456 -0.317748
1.70601 10.8202 -0.245038
2.08941 10.9835 -0.181557
-2.12815 11.2514 -0.238621
2.30238 11.2294 -0.260411
-2.04164 11.656 -0.231779
-1.96972 11.8845 -0.320147
2.20415 11.7489 -0.232267
-1.91492 12.2291 -0.248731
2.09606 12.2409 -0.238457
-1.82691 12.7581 -0.238732
2.0958 12.7303 -0.249466
-1.75812 13.2651 -0.260235
2.21923 13.2494 -0.248323
-1.71286 13.7683 -0.266046
1.93205 13.7767 -0.299492
2.09917 13.7267 -0.215233
-1.70309 14.2355 -0.247639
2.30788 14.2182 -0.311182
2.53383 14.4322 -0.16578
-1.69721 14.7574 -0.268862
2.46928 14.7057 -0.462182
2.57983 14.7531 -0.249803
-1.71268 15.2464 -0.256502
1.90802 15.4275 -0.404286
2.2762 15.2595 -0.250815
2.53395 15.0416 -0.159101
-1.73957 15.7598 -0.226518
1.35981 15.8832 -0.355695
1.74263 15.6612 -0.215188
2.02525 15.5049 -0.0791575
-1.79478 16.2513 -0.242912
0.866839 16.3726 -0.370708
1.15757 16.1999 -0.207219
-1.87434 16.7534 -0.25245
0.449887 16.892 -0.452361
0.709558 16.7187 -0.23436
-1.88218 17.2413 -0.240896
0.431086 17.25 -0.321542
0.543879 17.2531 -0.137084
-1.8395 17.7639 -0.235273
0.455467 17.8961 -0.368274
0.567816 17.7164 -0.2339
-1.64767 18.1471 -0.275582
-1.27006 18.3183 -0.247587
-0.757258 18.4177 -0.307849
-0.247498 18.4411 -0.253537
0.263599 18.2051 -0.245776
-2.16679 -0.0336309 0.248747
0.825566 -0.0296527 0.240352
-2.33268 0.213771 0.246388
0.926838 0.110618 0.258305
1.03854 0.387739 0.203797
-2.54714 0.888645 0.290656
-2.46487 0.63675 0.184679
1.16243 0.76192 0.247221
-2.65751 1.25557 0.262435
1.30015 1.25828 0.263745
-2.74729 1.76956 0.251002
1.41249 1.77046 0.243284
-2.67695 2.24497 0.246923
1.48114 2.08387 0.251318
1.53915 2.32813 0.254343
-2.58361 2.75124 0.249558
1.62016 2.74776 0.264212
-2.52139 3.14398 0.272733
-2.4856 3.38328 0.221304
1.70938 3.26534 0.248839
-2.43909 3.74118 0.24593
1.79505 3.74821 0.260983
-2.39028 4.24472 0.248174
1.88998 4.25766 0.257522
-2.36315 4.74598 0.23711
1.95683 4.756 0.236402
-2.36951 5.26097 0.258659
1.9608 5.25039 0.249243
-2.39123 5.73242 0.246941
1.92681 5.75404 0.241025
-2.40301 6.24618 0.241775
1.84028 6.23864 0.239856
-2.34101 6.7317 0.250611
1.74458 6.73565 0.239672
-2.30556 7.27248 0.23085
1.64081 7.23657 0.239521
-2.24323 7.75316 0.23983
1.47882 7.89703 0.298923
1.5437 7.65181 0.23013
-2.22222 8.26427 0.241393
1.40796 8.23595 0.262364
-2.25051 8.73407 0.261872
1.32027 8.74245 0.245704
-2.23393 9.24245 0.244309
1.25868 9.26005 0.230853
-2.21555 9.74723 0.276132
1.27612 9.7496 0.254985
-2.18591 10.2548 0.257959
1.34617 10.212 0.248437
-2.18986 10.7503 0.23863
1.47184 10.5699 0.366995
1.68934 10.8071 0.23421
2.08073 10.9793 0.164551
-2.12419 11.251 0.262452
2.26004 11.2455 0.259447
-2.03607 11.6792 0.192117
-1.9547 11.8457 0.336254
2.14043 11.7602 0.250284
-1.89931 12.2336 0.257097
1.99589 12.3348 0.475852
2.05348 12.2391 0.23742
-1.81883 12.7271 0.25688
1.98464 12.5001 0.473497
2.08512 12.761 0.264364
-1.76215 13.2491 0.272684
2.21064 13.2672 0.257008
-1.72567 13.7515 0.238204
1.91335 13.8021 0.302803
2.08138 13.6887 0.191488
-1.71983 14.2617 0.2561
1.95969 14.0478 0.436204
2.25925 14.2419 0.261018
2.54312 14.4604 0.0673232
-1.7268 14.7676 0.234935
2.43667 14.7737 0.418943
2.55829 14.7451 0.163063
-1.75193 15.266 0.238054
1.88485 15.4071 0.410294
2.25336 15.2102 0.247704
2.50092 15.0485 0.095519
-1.77525 15.7479 0.233244
1.42288 15.8865 0.373538
1.70759 15.6851 0.23093
2.00831 15.5312 0.030012
-1.8429 16.2485 0.236037
0.954164 16.4606 0.418726
1.20576 16.2209 0.23981
-1.89995 16.7622 0.241837
0.822924 16.7444 0.241433
1.01072 16.5152 0.101446
-1.91438 17.2517 0.257324
0.583197 17.2483 0.238787
-1.86028 17.7468 0.247208
0.48487 17.9975 0.110486
0.605319 17.7678 0.248739
-1.66906 18.1256 0.238018
-1.29374 18.2868 0.270455
-0.753909 18.3898 0.271811
-0.21634 18.4253 0.228597
0.30029 18.2244 0.246408
-2.25075 -0.0329543 0.762767
0.792025 -0.0364565 0.725894
-2.51543 0.454905 0.973485
-2.3905 0.186406 0.729473
0.915495 0.133828 0.77216
1.03364 0.423029 0.716571
-2.56938 0.738974 0.746931
-2.49048 0.51228 0.597127
1.13869 0.741088 0.743352
-2.73366 1.27711 0.738835
1.28367 1.24739 0.741976
-2.78635 1.77363 0.764621
1.38148 1.73611 0.758277
-2.69055 2.25568 0.751618
1.46635 2.17878 0.76992
1.52522 2.3881 0.676678
-2.5833 2.76706 0.76449
1.58899 2.73577 0.752526
-2.52421 3.14183 0.750189
-2.48516 3.37095 0.75809
1.68763 3.24912 0.745315
-2.44117 3.76584 0.72876
1.77163 3.74755 0.731885
-2.39179 4.25786 0.748736
1.8602 4.26578 0.743455
-2.36903 4.74887 0.74563
1.92521 4.76703 0.742541
-2.37314 5.25352 0.747703
1.92608 5.24526 0.752061
-2.36396 5.74806 0.736269
1.87774 5.74939 0.760942
-2.38769 6.25337 0.755252
1.79464 6.23946 0.731272
-2.30683 6.75545 0.756881
1.69041 6.74995 0.744728
-2.23664 7.24578 0.732304
1.59217 7.24854 0.726183
-2.23703 7.73117 0.75426
1.44711 7.81185 0.792178
1.51944 7.59003 0.681592
-2.23049 8.23504 0.729363
1.35183 8.24079 0.753424
-2.20619 8.74893 0.749797
1.25211 8.73147 0.752542
-2.21565 9.26596 0.750535
1.18311 9.23484 0.761359
-2.19505 9.74218 0.742345
1.19663 9.73279 0.735415
-2.18303 10.2293 0.76011
1.22039 10.2279 0.776159
-2.15571 10.7426 0.739347
1.40443 10.6992 0.803509
1.68692 10.9163 0.700691
2.01996 10.9975 0.574399
-2.11698 11.2366 0.760736
1.90878 11.0277 0.904553
2.1251 11.2454 0.737525
-2.02725 11.5453 0.712033
-1.92809 11.7838 0.736527
1.95069 11.8069 0.85733
2.04647 11.6892 0.66351
-1.8159 12.2546 0.731485
1.91531 12.2572 0.759448
2.00484 12.0181 0.556114
-1.74428 12.7477 0.752877
1.92578 12.7027 0.811402
2.0398 12.8756 0.653473
-1.69124 13.2435 0.757307
1.93361 13.4051 0.886799
2.09676 13.234 0.731604
-1.64776 13.7335 0.761114
1.74407 13.7562 0.766316
2.04777 13.5302 0.531141
-1.64094 14.2446 0.750396
1.85691 14.1615 0.742099
2.07589 14.4032 0.678828
-1.64967 14.7481 0.747442
1.34776 14.9142 0.933247
1.76804 14.9011 0.935013
2.23529 14.7378 0.73339
-1.68301 15.2485 0.745389
1.27346 15.2702 0.796465
1.72701 15.2143 0.67743
2.08687 15.0715 0.617782
-1.71758 15.7433 0.743191
0.848604 15.8181 0.856116
1.20712 15.7238 0.689463
1.5736 15.5547 0.55508
-1.78228 16.2443 0.759861
0.413809 16.3837 0.93177
0.761792 16.2531 0.778437
1.08192 16.1218 0.593567
-1.83261 16.7491 0.757967
0.380333 16.7616 0.948286
0.646305 16.7402 0.680587
-1.86262 17.254 0.753249
0.458929 17.1182 0.795004
0.562965 17.2972 0.71314
-1.7853 17.7562 0.744511
0.622215 17.7659 0.754834
-1.59744 18.0947 0.718922
-1.247 18.2405 0.774246
-0.767717 18.3436 0.779899
-0.213823 18.3776 0.736512
0.291693 18.2079 0.753588
-2.29117 -0.0379641 1.2352
0.795619 -0.0340255 1.22191
-2.52437 0.414891 1.32812
-2.42105 0.13208 1.21987
0.910315 0.164128 1.26483
1.00522 0.451237 1.20061
-2.61935 0.769522 1.22474
1.11197 0.766237 1.24013
-2.74962 1.27353 1.25569
1.24224 1.25223 1.24096
-2.77695 1.7676 1.25511
1.35556 1.74211 1.25075
-2.67042 2.24675 1.25366
1.43253 2.2268 1.28587
1.50838 2.47447 1.17697
-2.57645 2.75239 1.2331
1.55301 2.74099 1.24892
-2.51854 3.11948 1.21211
-2.47921 3.35444 1.31702
1.63589 3.26688 1.25446
-2.43744 3.74991 1.25465
1.73878 3.7648 1.2489
-2.37995 4.25834 1.24249
1.81226 4.2395 1.26083
-2.33103 4.7604 1.24181
1.85917 4.76114 1.25719
-2.30894 5.24894 1.24762
1.84587 5.2526 1.24325
-2.33916 5.75901 1.24827
1.78536 5.73253 1.25476
-2.3471 6.23788 1.25563
1.70053 6.23398 1.23729
-2.24398 6.74737 1.25057
1.59395 6.73416 1.25767
-2.17397 7.24857 1.243
1.4905 7.33435 1.32458
1.53098 7.21138 1.1924
-2.16013 7.74891 1.2346
1.41959 7.7477 1.23762
1.51155 7.52706 1.43249
-2.14815 8.24774 1.24291
1.27356 8.22954 1.23856
-2.15964 8.75571 1.24283
1.13615 8.7366 1.26254
-2.17661 9.25016 1.24885
0.969673 9.31591 1.42428
1.06478 9.2289 1.19575
-2.183 9.74844 1.26287
0.956734 9.70825 1.37501
1.06124 9.7779 1.15178
-2.16853 10.2583 1.25612
0.949264 10.2469 1.41335
1.08825 10.2595 1.16136
-2.16002 10.7479 1.24238
0.987914 10.5855 1.44921
1.20054 10.7553 1.25772
1.5747 10.9845 1.05897
-2.08417 11.2276 1.24257
-1.96181 11.4383 1.26025
1.34781 11.0532 1.38021
1.84034 11.2321 1.24828
2.03747 11.2307 1.0459
-1.82614 11.7572 1.24906
1.76627 11.7654 1.25369
-1.73315 12.2454 1.24651
1.69134 12.2367 1.25458
-1.65702 12.743 1.25692
1.71426 12.7536 1.24525
-1.58803 13.2519 1.26119
1.48184 13.2849 1.45591
1.75004 13.2211 1.22067
-1.59085 13.7513 1.25295
1.4436 13.808 1.33456
1.56424 13.6854 1.13481
-1.59064 14.2539 1.28026
1.38754 14.2406 1.25955
1.71444 14.2714 1.11881
2.00628 14.4602 1.01357
-1.59444 14.7543 1.24141
1.27899 14.7436 1.22375
1.73188 14.6891 1.09015
2.02813 14.5885 1.02588
-1.60822 15.2553 1.25963
0.956727 15.3975 1.3295
1.08902 15.1889 1.23169
-1.64366 15.7494 1.26259
0.767334 15.7399 1.23969
-1.68646 16.2613 1.23351
0.293234 16.2822 1.23475
0.53825 16.0655 1.2134
-1.74421 16.7393 1.25142
0.16289 16.7268 1.20518
-1.73467 17.2643 1.27182
0.446768 17.0874 1.19533
0.589199 17.3398 1.26334
-1.6722 17.7523 1.25894
0.448393 17.9388 1.29123
0.617846 17.6843 1.25473
-1.5521 18.0203 1.1805
-1.2795 18.1474 1.26883
-0.774275 18.2864 1.24356
-0.212434 18.302 1.25069
0.236927 18.1649 1.25114
-2.31823 -0.0338482 1.7263
0.799566 -0.0359282 1.74496
-2.52626 0.392058 1.71768
-2.43413 0.105545 1.75573
0.914894 0.170741 1.764
1.00312 0.47439 1.57466
-2.60169 0.763368 1.76148
0.996435 0.553365 1.95549
1.06201 0.746334 1.73372
-2.72449 1.25242 1.75467
1.21422 1.24898 1.7469
-2.76078 1.75624 1.75243
1.32259 1.74504 1.7189
-2.64382 2.24968 1.73523
1.42405 2.26724 1.7207
-2.55179 2.72092 1.73927
-2.48357 2.93052 1.93395
1.46541 2.74531 1.82975
1.52191 2.82154 1.60372
-2.51163 3.07155 1.59367
-2.45904 3.27519 1.78962
1.47181 3.15666 1.93012
1.56574 3.28485 1.71705
-2.40124 3.74804 1.75221
1.63983 3.7453 1.7562
-2.33871 4.25001 1.75065
1.70875 4.25482 1.75255
-2.29525 4.74316 1.74882
1.72589 4.75109 1.74907
-2.28295 5.26084 1.74982
1.68265 5.25406 1.74225
-2.31126 5.75971 1.75646
1.48194 5.89941 1.95984
1.61639 5.74481 1.74066
-2.26914 6.24695 1.74742
1.44624 6.28481 1.88535
1.56965 6.2162 1.65184
-2.1549 6.73527 1.7511
1.40473 6.77845 1.78605
1.51939 6.64584 1.56379
-2.11583 7.23827 1.76878
1.41888 7.20769 1.80295
1.51678 7.38659 1.61499
-2.11653 7.75975 1.7543
1.34608 7.79592 1.79451
1.52898 7.60717 1.65322
-2.09886 8.23378 1.7457
0.975903 8.45566 1.95267
1.1248 8.25206 1.76144
-2.09049 8.74653 1.74054
0.92519 8.78714 1.8457
1.03587 8.67587 1.62925
-2.12868 9.26552 1.7391
0.838215 9.2678 1.76974
1.00137 9.03353 1.50676
-2.12542 9.743 1.73822
0.758392 9.74557 1.74827
-2.13082 10.2385 1.75133
0.725635 10.2456 1.75147
-2.12311 10.7457 1.73812
0.479675 10.7341 1.99614
0.749228 10.7347 1.76834
1.04997 10.9421 1.56127
-2.05591 11.1526 1.72932
-1.94789 11.4122 1.76795
0.794892 11.167 1.89095
1.29361 11.2514 1.76168
1.61896 11.3247 1.61753
-1.76253 11.7585 1.78083
1.39842 11.7788 1.83
1.58155 11.7255 1.59393
-1.61117 12.2328 1.71819
-1.47636 12.2911 1.96889
1.34002 12.2566 1.79615
1.52809 12.2174 1.54315
-1.56392 12.752 1.76018
-1.45244 12.5098 1.98799
1.33384 12.746 1.74946
1.50631 12.5789 1.51858
-1.52222 13.2084 1.71775
-1.49215 13.3591 1.89312
1.29266 13.2576 1.75143
-1.53447 13.7738 1.67094
-1.48351 13.7046 1.90839
1.24851 13.7392 1.77626
-1.53164 14.2162 1.70889
-1.48605 14.2516 1.91682
1.20389 14.2585 1.7443
-1.54275 14.7458 1.62996
-1.48033 14.7639 1.88503
0.969859 14.9139 1.93291
1.10944 14.7334 1.7199
-1.54957 15.2504 1.62157
-1.48246 15.2628 1.8723
0.878535 15.2823 1.76733
1.03286 15.0774 1.59864
-1.55915 15.7674 1.63872
-1.48384 15.7253 1.88187
0.457931 15.9482 1.83003
0.663564 15.6987 1.71274
-1.57811 16.2794 1.69029
-1.4852 16.1734 1.91593
-0.0517671 16.3896 1.87584
0.238396 16.178 1.71715
-1.60829 16.7457 1.73656
-1.49105 16.5251 1.99433
0.159986 16.7365 1.74695
-1.60301 17.2494 1.73503
0.453508 17.0686 1.72729
0.574029 17.3432 1.76945
-1.57763 17.7018 1.6831
-1.42995 17.8996 1.85258
0.370673 17.8051 1.777
0.563004 17.6065 1.66169
-1.21511 18.0793 1.71311
-0.756894 18.1943 1.73892
-0.250527 18.1899 1.7602
0.141533 18.0947 1.68148
-2.27541 -0.0341823 2.2135
0.726063 -0.0359073 2.26622
-2.5176 0.4638 2.05582
-2.40669 0.167412 2.26467
0.853634 0.19044 2.2586
-2.55997 0.762917 2.23586
-2.48308 0.53451 2.42289
0.941863 0.706836 2.32017
1.03732 0.853527 2.16632
-2.67443 1.26158 2.25185
0.954068 1.03829 2.46552
1.13592 1.22754 2.2662
-2.71398 1.76747 2.25031
1.24162 1.73914 2.25296
-2.58472 2.25111 2.25651
1.32725 2.26494 2.23266
-2.51997 2.62595 2.15208
-2.45649 2.83515 2.30141
1.37788 2.75508 2.24852
-2.39391 3.25198 2.25476
1.31482 3.23431 2.2786
-2.32102 3.74283 2.25862
1.33104 3.7615 2.31427
1.53171 3.81417 2.04406
-2.27306 4.25625 2.24045
1.31908 4.27016 2.35967
1.55463 4.26407 2.0786
-2.24393 4.74173 2.26532
1.30857 4.76196 2.34723
1.55141 4.76095 2.0962
-2.248 5.2375 2.25372
0.95346 5.37394 2.48035
1.27262 5.25505 2.299
1.53641 5.21548 2.03723
-2.24777 5.74476 2.25476
0.899644 5.77166 2.46831
1.26369 5.73531 2.23589
1.50166 5.6043 2.00762
-2.15953 6.24998 2.24644
0.865719 6.25412 2.44741
1.21499 6.25171 2.19785
-2.08743 6.73897 2.2329
0.8408 6.71591 2.43056
1.1527 6.73953 2.18584
-2.07835 7.24633 2.23299
0.873321 7.22528 2.43557
1.18399 7.27954 2.19977
-2.07669 7.74495 2.26741
0.954484 7.82752 2.45362
1.13226 7.74621 2.21624
-2.06875 8.24898 2.24933
0.902426 8.26161 2.28402
1.04174 8.13191 2.08415
-2.05776 8.73826 2.241
0.754756 8.75242 2.25193
-2.08156 9.24346 2.24212
0.447642 9.4048 2.43582
0.625534 9.22215 2.21609
-2.11037 9.77144 2.22537
0.39892 9.76753 2.32669
0.561537 9.71028 2.09559
-2.12095 10.2474 2.2451
0.300624 10.2529 2.2669
0.524139 10.2363 2.01982
-2.08322 10.7569 2.24298
-0.0426347 10.8398 2.45578
0.247515 10.7567 2.22386
0.508122 10.774 2.03167
-2.02347 11.1086 2.15675
-1.89804 11.3321 2.28651
-0.525447 11.4699 2.45228
-0.18368 11.289 2.38107
0.241535 11.2352 2.19447
0.656584 11.353 2.08276
1.15427 11.4231 2.08021
-1.6607 11.6711 2.22477
-1.25786 11.8198 2.30255
-0.734366 11.7694 2.37981
-0.252863 11.7671 2.35755
0.258047 11.7562 2.36932
0.773403 11.7542 2.30287
1.14597 11.7439 2.10564
-1.50658 12.0365 2.00054
-1.23592 12.2334 2.1564
-0.752805 12.2349 2.3389
-0.26984 12.2387 2.41828
0.262436 12.2421 2.38898
0.753087 12.2366 2.2844
1.10019 12.2369 2.09287
-1.52122 12.6743 2.00877
-1.26319 12.742 2.17655
-0.765776 12.7435 2.3288
-0.2454 12.7607 2.36959
0.232515 12.7509 2.35381
0.753674 12.7346 2.26909
1.08701 12.7359 2.07671
-1.28025 13.286 2.19558
-0.744153 13.2585 2.34746
-0.241988 13.2329 2.36608
0.245064 13.2637 2.34984
0.762694 13.2387 2.28336
1.06567 13.2279 2.09156
-1.55751 13.809 2.29696
-1.44805 13.577 2.24245
-0.568348 13.5559 2.4427
-0.222072 13.7279 2.41852
0.259786 13.7467 2.37955
0.774344 13.7464 2.30655
1.05943 13.7506 2.09819
-1.56563 14.2352 2.25771
-1.49197 14.4886 2.00084
-0.170346 14.2559 2.45454
0.234381 14.2454 2.40883
0.77642 14.2591 2.32212
1.04919 14.2281 2.08019
-1.58226 14.7518 2.26786
-1.49455 14.8321 2.02977
-0.161736 14.7584 2.475
0.245214 14.7425 2.43535
0.782971 14.7423 2.28989
1.0261 14.6088 2.01309
-1.56894 15.2587 2.26464
-1.48411 15.2553 2.01074
-0.0828681 15.1397 2.49076
0.255587 15.2454 2.46855
0.686254 15.2287 2.27238
-1.57806 15.7487 2.28016
-1.49141 15.7946 2.01879
-0.004302 15.9969 2.48129
0.311355 15.7897 2.35437
0.565265 15.626 2.15274
-1.5685 16.2585 2.27701
-1.48776 16.2938 2.02742
-0.0791576 16.2896 2.26643
0.135547 16.0813 2.22559
-1.55366 16.7773 2.27085
-1.49731 16.7642 2.03905
-0.0130743 16.6782 2.48925
0.207483 16.7911 2.32398
-1.53226 17.1486 2.23529
-1.4737 17.3283 2.23853
-0.13306 17.2986 2.48486
0.299234 17.2404 2.32498
0.531497 17.2729 2.09568
-1.5012 17.5233 2.00223
-1.27196 17.7215 2.25097
-0.740374 17.8281 2.41083
-0.235112 17.774 2.41062
0.201136 17.6942 2.17902
-1.05939 18.0282 2.04064
-0.696011 18.0681 2.15163
-0.285312 18.0634 2.15418
0.062213 18.0014 2.03372
-2.1997 -0.031871 2.77412
0.448223 -0.0349823 2.9147
0.599042 -0.0260222 2.67112
-2.33256 0.171178 2.76497
0.670872 0.17718 2.74555
-2.52647 0.861983 2.70836
-2.45755 0.665857 2.82152
0.747004 0.730577 2.74679
-2.60541 1.25337 2.73013
0.805136 1.23403 2.7972
1.03383 1.40467 2.62998
-2.60387 1.74293 2.74735
-2.45888 1.94283 2.93655
0.879597 1.74323 2.86089
1.07434 1.75153 2.6146
-2.52604 2.13915 2.5976
-2.44675 2.29391 2.79535
0.889955 2.24122 2.87641
1.08729 2.26457 2.65163
-2.36407 2.75815 2.75826
0.90438 2.72588 2.89311
1.13869 2.78538 2.66806
-2.28869 3.24939 2.7406
0.889885 3.29185 2.85351
1.11723 3.21095 2.63978
-2.23222 3.74911 2.74274
0.781683 3.76975 2.76614
1.06781 3.75604 2.54626
-2.17687 4.24282 2.75583
0.729557 4.26011 2.72695
1.0702 4.21507 2.54129
-2.13018 4.74189 2.74929
0.470179 4.87525 2.90423
0.701112 4.7404 2.65125
1.05699 4.68327 2.5255
-2.11982 5.2548 2.76624
-1.98761 5.42077 2.98853
0.401906 5.26956 2.82005
0.705539 5.22037 2.5514
-2.10215 5.74293 2.71121
-1.98163 5.76021 2.9547
0.308445 5.77847 2.73532
0.656733 5.72726 2.52695
-2.04418 6.25495 2.71379
-1.98739 6.07959 2.95642
-0.017379 6.4786 2.9765
0.220647 6.26207 2.69805
0.621437 6.24361 2.52558
-2.04902 6.75514 2.75138
-1.99953 6.5794 2.75479
-0.0832449 6.79054 2.82976
0.220016 6.73741 2.62125
0.594696 6.72902 2.53152
-2.06476 7.2672 2.75741
-0.128003 7.24189 2.82434
0.243367 7.25039 2.65727
0.628122 7.27227 2.55578
-2.08394 7.75321 2.75333
-0.109767 7.74685 2.8606
0.242909 7.74769 2.74799
0.723703 7.76505 2.61932
-2.08453 8.24637 2.75182
-0.129099 8.23583 2.93715
0.267872 8.23601 2.85707
0.674125 8.25125 2.67231
-2.08469 8.767 2.75416
-0.111399 8.57497 2.98931
0.314759 8.74388 2.88776
0.57547 8.71688 2.61837
-2.07138 9.254 2.76563
0.31154 9.25352 2.75213
-2.09061 9.76083 2.7566
-0.0481819 9.85696 2.93283
0.153602 9.73516 2.71215
-2.07654 10.2553 2.73768
-0.143317 10.2847 2.80489
0.0663253 10.1612 2.59042
-2.03822 10.6753 2.70733
-1.96398 10.888 2.83382
-0.543008 10.8897 2.93698
-0.274621 10.7419 2.7147
0.004712 10.5441 2.50229
-1.77217 11.2544 2.76429
-1.34778 11.4725 2.94076
-0.682673 11.2992 2.79592
-0.358423 11.1641 2.59079
-1.58407 11.5507 2.60538
-1.26644 11.5888 2.72319
-0.859429 11.5542 2.67403
-1.04997 13.4786 2.53999
-0.892926 13.4812 2.56637
-1.5459 13.8205 2.57021
-1.24686 13.7413 2.74802
-0.756697 13.7243 2.83408
-0.425566 13.8161 2.68435
-1.53912 14.2622 2.55131
-1.25322 14.2467 2.75352
-0.75967 14.2614 2.85493
-0.396103 14.2468 2.70177
-1.55952 14.7535 2.59295
-1.26636 14.7427 2.74356
-0.771551 14.7694 2.82772
-0.402685 14.7351 2.65512
-1.54431 15.2026 2.5568
-1.24631 15.2321 2.70498
-0.724033 15.2514 2.80928
-0.327419 15.2599 2.57914
0.027583 15.4504 2.50237
-1.55311 15.8162 2.56423
-1.25629 15.7506 2.71782
-0.727482 15.7583 2.82038
-0.296477 15.732 2.57392
0.0856829 15.7567 2.50852
-1.55163 16.2175 2.59329
-1.24537 16.2356 2.77984
-0.730524 16.2494 2.79614
-0.318928 16.2346 2.56668
-1.5534 16.7462 2.58309
-1.25989 16.7416 2.74684
-0.736295 16.7426 2.78462
-0.27227 16.7446 2.53415
0.0531514 16.8021 2.5071
-1.54581 17.0923 2.5576
-1.2453 17.2127 2.65628
-0.726986 17.2568 2.69039
-0.326839 17.1899 2.51007
-1.07522 17.5852 2.53118
-0.793321 17.5907 2.57114
-0.407421 17.5615 2.5006
-2.11354 -0.0327861 3.23042
-1.9764 -0.0549005 3.48523
-0.0836859 -0.0415205 3.4284
0.236114 -0.027289 3.20835
-2.24339 0.193887 3.26214
0.269636 0.18744 3.30684
0.517552 0.239045 3.02836
-2.37027 0.756256 3.29736
-0.014886 0.95427 3.48785
0.270395 0.739666 3.30582
0.543455 0.687063 3.044
-2.53581 1.29271 3.11568
-2.28876 1.25874 3.37908
-1.97069 1.42077 3.48296
-0.0771056 1.29707 3.47726
0.257043 1.23789 3.30787
0.572004 1.28045 3.06469
-2.54803 1.614 3.07461
-2.28202 1.75421 3.28378
-1.87191 1.78628 3.46594
-0.134597 1.7763 3.47546
0.260064 1.74178 3.34053
0.644684 1.75813 3.10224
-2.20713 2.25278 3.22747
-1.74829 2.26255 3.43706
-1.46414 2.38147 3.48397
-0.544129 2.36495 3.4918
-0.242172 2.286 3.48214
0.247989 2.23954 3.33844
0.638188 2.27832 3.09843
-2.16518 2.76352 3.17643
-1.74988 2.75358 3.38331
-1.27656 2.78925 3.4676
-0.731015 2.79079 3.47606
-0.242169 2.73476 3.45507
0.259335 2.74321 3.30221
0.652047 2.77381 3.08896
-2.11791 3.23891 3.13783
-1.75983 3.24214 3.33975
-1.25567 3.25423 3.43036
-0.748896 3.23663 3.44654
-0.239028 3.24785 3.44
0.25431 3.24218 3.31235
0.655504 3.27677 3.12439
-2.08356 3.75147 3.10445
-1.7419 3.75043 3.31873
-1.23823 3.74524 3.43037
-0.781451 3.74351 3.44707
-0.207754 3.70294 3.46828
0.250318 3.74132 3.35403
0.605186 3.7559 3.13736
-2.06052 4.21642 3.05697
-1.77826 4.25233 3.27739
-1.27556 4.25453 3.43888
-0.900817 4.12885 3.46704
-0.0637704 4.26447 3.48895
0.264408 4.27036 3.36001
0.53961 4.2056 3.10629
-2.01699 4.80456 3.01727
-1.76558 4.74425 3.24796
-1.34285 4.72494 3.42709
-0.016353 4.62291 3.49309
0.273599 4.74366 3.29868
-2.00312 5.12037 3.03546
-1.77034 5.23131 3.22281
-1.44874 5.06754 3.42641
0.208297 5.24448 3.25763
-1.84379 5.74877 3.25212
-0.0352179 5.88768 3.41268
0.108582 5.71893 3.22211
-2.05111 6.33685 3.19025
-1.93834 6.1809 3.34443
-0.10275 6.28724 3.30078
0.0483305 6.13387 3.09319
-2.09943 6.76015 3.25145
-1.9381 6.73512 3.47117
-0.249375 6.74337 3.24732
-2.11562 7.25092 3.27987
-1.96757 7.1128 3.4893
-0.306981 7.24505 3.26308
-2.12135 7.75384 3.27864
-1.99643 7.85155 3.47959
-0.2705 7.74616 3.25198
-2.10937 8.24813 3.25806
-0.29097 8.2492 3.26946
-2.08375 8.75938 3.24674
-1.99279 8.62477 3.48799
-0.267644 8.75677 3.20965
0.101353 8.88341 3.04066
-2.05631 9.23972 3.21021
-1.98203 9.31041 3.43274
-0.277574 9.24208 3.2589
0.0975055 9.24943 3.07228
-2.04048 9.74369 3.16018
-1.95759 9.75885 3.41626
-0.528105 9.80334 3.43989
-0.252654 9.7358 3.23628
0.0344095 9.5418 3.03229
-2.02804 10.1788 3.07337
-1.93683 10.2857 3.32966
-0.591772 10.3056 3.39147
-0.377089 10.2174 3.17634
-2.0002 10.5448 3.04131
-1.85374 10.7653 3.26394
-1.04947 10.9863 3.46613
-0.733365 10.7647 3.26479
-0.44171 10.5687 3.02876
-1.65071 11.1335 3.19743
-1.22377 11.2769 3.26783
-0.87694 11.1483 3.13335
-2.04703 -0.00763547 3.5544
-1.78807 -0.0331707 3.61536
-1.27502 -0.0370824 3.66992
-0.748351 -0.0337339 3.66004
-0.308042 -0.0324061 3.56295
-2.09134 0.18457 3.59029
-1.75399 0.199057 3.73121
-1.27369 0.197456 3.77784
-0.756229 0.191953 3.76486
-0.258059 0.18163 3.64311
0.0235872 0.351288 3.5133
-2.12452 0.749804 3.55879
-1.76203 0.753878 3.65456
-1.24309 0.759474 3.7056
-0.767449 0.741919 3.68944
-0.271501 0.755214 3.59678
-2.06338 1.1005 3.52795
-1.72458 1.2468 3.58777
-1.25341 1.24458 3.63712
-0.743908 1.25092 3.625
-0.30853 1.22703 3.56059
-1.64875 1.68002 3.53067
-1.24484 1.74369 3.58021
-0.748381 1.75253 3.58842
-0.38075 1.74904 3.52927
-1.2321 2.24499 3.52847
-0.764742 2.24519 3.53536
-0.347391 2.15275 3.50811
-1.12493 2.59747 3.5038
-0.811029 2.57125 3.50814
-0.283821 2.93278 3.50834
-0.304776 3.0375 3.50375
-0.547181 3.91731 3.52303
-0.362799 3.90611 3.51815
-0.701705 4.29501 3.55525
-0.317924 4.25112 3.53521
-1.13186 4.815 3.55423
-0.771753 4.76435 3.58655
-0.26194 4.75016 3.54771
0.002664 4.96157 3.50152
-1.52673 5.41928 3.54481
-1.24 5.27909 3.60237
-0.748898 5.26048 3.6199
-0.238206 5.24911 3.57283
0.0200125 5.22892 3.51445
-1.60884 5.79148 3.57195
-1.24844 5.76278 3.64592
-0.752325 5.75794 3.66444
-0.266909 5.74135 3.60982
-1.68059 6.25477 3.58023
-1.25961 6.25293 3.67974
-0.75402 6.2551 3.72226
-0.319606 6.24441 3.63625
-1.70939 6.74484 3.59872
-1.25374 6.73477 3.71713
-0.754599 6.73474 3.7594
-0.420681 6.71488 3.60971
-1.72684 7.25866 3.62211
-1.2411 7.25221 3.76212
-0.755657 7.23836 3.79763
-0.443879 7.26133 3.60131
-1.75282 7.75714 3.63932
-1.23005 7.75219 3.79666
-0.75348 7.75854 3.8236
-0.438664 7.75035 3.61788
-2.00596 8.38643 3.50441
-1.7613 8.25476 3.6727
-1.25889 8.26401 3.82989
-0.742552 8.27134 3.82941
-0.439382 8.21952 3.58588
-1.78825 8.76061 3.6865
-1.24673 8.7507 3.87579
-0.723148 8.75499 3.8154
-0.45832 8.71054 3.55565
-1.76651 9.25639 3.70209
-1.25369 9.24171 3.90227
-0.717573 9.25784 3.78841
-0.473751 9.06565 3.53214
-1.73346 9.74281 3.71093
-1.25709 9.75271 3.91124
-0.743992 9.74925 3.76895
-1.71065 10.2484 3.68048
-1.25791 10.2754 3.86181
-0.811586 10.2077 3.70224
-1.63636 10.7033 3.61702
-1.24031 10.7428 3.71859
-0.914864 10.6204 3.58593
-1.29738 11.059 3.54701
