ply
format ascii 1.0
comment Generated by Slim Ghodhbane
element vertex 405
property double x
property double y
property double z
end_header
-0.125502 -14.7129 1.47899
0.232844 -14.7323 1.49358
-0.0185844 -9.63229 1.34738
0.0121005 -9.6337 1.30975
-0.26 -5.74 1.41904
0.26 -5.78 1.42331
-0.623252 -5.25193 1.41389
-0.393118 -5.00974 1.30529
0.653466 -5.26825 1.42174
-1.0687 -4.53469 1.45296
-0.78824 -4.82161 1.369
-0.46 -4.82 1.27841
0.746206 -4.8093 1.35016
1.06859 -4.53488 1.45291
-1.19327 -4.16004 1.41103
-0.776901 -4.37041 1.22513
0.775119 -4.26753 1.20647
1.19327 -4.16004 1.41103
-1.12613 -3.91064 1.24655
1.12627 -3.91134 1.24691
-1.27563 -3.34 1.36284
1.27312 -3.30422 1.35739
-1.28214 -2.85715 1.35636
1.18949 -1.68145 1.25091
-1.34006 -0.796631 1.37116
1.35031 -0.616801 1.38418
-1.12025 -0.370233 1.16138
-1.35751 0.064425 1.35664
1.35676 0.069575 1.35488
-1.37191 1.22 1.33989
1.35328 1.21589 1.32058
-1.40305 1.9733 1.36522
-1.2585 2.42308 1.23033
1.31109 2.42628 1.26817
-1.19233 2.69591 1.27012
-0.654283 2.80978 1.20922
0.653512 2.80724 1.20878
1.21755 2.69656 1.28352
-1.00424 3.20263 1.31374
-0.646232 3.39439 1.33077
0.78159 3.37695 1.33174
-0.925905 3.77226 1.44811
0.814229 3.81653 1.44792
0.077057 -16.5899 1.99287
-0.530324 -15.9965 1.99384
-0.192033 -15.821 1.74547
0.57695 -15.5148 1.84704
-0.565083 -15.5 1.83568
-0.789254 -14.72 1.82962
-0.477574 -14.734 1.58577
0.464756 -14.7378 1.58077
0.791968 -14.6916 1.82553
-0.734459 -14.1303 1.69076
0.734907 -14.1316 1.69127
-0.727789 -5.70721 1.6705
0.725043 -5.70771 1.66901
-0.886796 -5.4348 1.71968
0.886796 -5.4348 1.71968
-1.11951 -4.67368 1.60257
1.11951 -4.67368 1.60257
-1.2919 -4.1991 1.78528
1.2919 -4.1991 1.78527
-1.38679 -3.72661 1.86359
1.3868 -3.72659 1.86363
-2.12841 -3.10649 1.96395
-1.81078 -3.28061 1.92173
-1.38282 -3.29683 1.79368
1.38095 -3.27304 1.7788
1.80539 -3.28511 1.92272
2.11978 -3.11547 1.96199
-2.26804 -2.94953 1.98854
-1.40697 -2.80357 1.69281
1.41327 -2.79137 1.70708
2.26805 -2.94952 1.98854
-1.73019 -2.05621 1.79115
-1.40275 -2.42 1.64007
1.40275 -2.42 1.64006
1.73021 -2.0562 1.79114
-1.42917 -1.28138 1.61424
1.42917 -1.28141 1.61424
-1.70622 -0.826576 1.77695
-1.4649 -0.769249 1.67264
1.46478 -0.769277 1.67247
1.70623 -0.826583 1.77695
-1.46817 -0.212306 1.71488
1.46814 -0.212784 1.71483
-1.45454 0.273574 1.73139
1.45447 0.272631 1.73096
-1.5001 0.739172 1.85623
-1.44898 0.708316 1.79191
1.449 0.708315 1.79193
1.50011 0.739162 1.85622
-1.4486 1.30426 1.92387
1.44861 1.30428 1.92387
-1.42561 1.58154 1.95636
1.42561 1.58154 1.95636
-1.48062 2.28716 1.63373
1.48064 2.28834 1.63378
-1.30213 3.24779 1.64213
1.29792 3.26927 1.64706
-1.14381 3.81901 1.6174
1.14131 3.83138 1.62063
-1.04401 4.37166 1.73808
-0.822547 4.36804 1.58176
0.823305 4.34718 1.57466
1.04288 4.37942 1.73989
-0.815515 4.74021 1.71426
-0.5 4.58 1.51024
0.736633 4.70116 1.66303
-0.753549 7.54 1.69927
0.749765 7.7 1.7022
0.956418 8.18595 1.92686
-0.759817 8.55565 1.74257
0.759894 8.5575 1.7425
-0.244037 9.48059 1.59707
0.245812 9.15929 1.54765
0.933041 9.06 1.96856
-0.72001 9.52118 1.83926
0.720026 9.52014 1.83918
-0.696186 10.1 1.92201
0.246796 10.0963 1.69306
0.672846 10.1075 1.90459
-0.355388 10.6689 1.82543
0.286559 10.6701 1.81642
-0.211403 11.22 1.94232
0.44224 11.0844 1.98306
-0.28764 -17.1642 2.41769
0.253042 -17.193 2.41492
-0.336966 -16.616 2.11075
0.291042 -16.7227 2.13978
-0.655516 -16.4225 2.3775
0.655517 -16.4225 2.3775
-0.84757 -15.7678 2.31128
0.84757 -15.7678 2.31128
-1.08479 -15.1308 2.47853
-0.956578 -15.1476 2.18398
0.956578 -15.1476 2.18398
1.08479 -15.1308 2.47853
-1.0485 -14.7053 2.17858
1.0485 -14.7053 2.17858
-1.23903 -13.7764 2.38472
1.23903 -13.7764 2.38472
-1.17101 -5.11997 2.14799
1.17101 -5.11997 2.14799
-1.36206 -4.14266 2.15979
1.36209 -4.14261 2.1598
-2.05617 -3.50882 2.23006
-1.7331 -3.69415 2.19001
-1.39607 -3.75288 2.34654
1.39012 -3.77155 2.34761
1.74045 -3.6979 2.17187
2.05617 -3.50882 2.23006
-2.16009 -3.22718 2.10141
-1.9544 -3.46534 2.08599
-1.43784 -3.43342 2.45843
1.43785 -3.43342 2.45844
1.96331 -3.47823 2.10273
2.171 -3.24089 2.12316
-2.30999 -2.96098 2.04081
2.31 -2.96099 2.04081
-1.39155 0.358456 2.45615
1.39155 0.358451 2.45615
-1.77318 0.876032 2.39782
-1.39164 0.79489 2.37418
1.38911 0.786292 2.37704
1.73521 0.902689 2.38441
-1.41711 1.2466 2.26017
1.4131 1.26304 2.25775
1.78125 1.1379 2.31781
2.33839 1.34119 2.36858
-1.55594 1.60053 2.1145
-1.42939 1.62226 2.10368
1.42939 1.62226 2.10368
1.58629 1.59546 2.11848
-1.27998 3.75952 2.32311
1.27998 3.75952 2.32311
-1.2284 4.21681 2.34242
1.24644 4.14 2.39913
-1.13568 4.69561 2.13243
1.12981 4.71725 2.12406
1.12475 7.8359 2.16365
-1.12289 8.1 2.17239
-1.10911 8.91839 2.18726
1.1285 8.8681 2.22532
-0.926774 9.62 2.07135
0.866937 9.86 2.0456
1.07871 9.50902 2.27761
0.661291 10.8962 2.06947
0.761352 11.7906 2.47711
-0.204018 12.1648 2.22497
0.386967 12.3933 2.36938
-0.131928 -17.6012 2.82318
0.13168 -17.5923 2.79175
-0.567537 -17.0171 2.9282
-0.411348 -17.2913 2.77349
0.41211 -17.2904 2.7725
0.567537 -17.0171 2.9282
-0.806198 -16.2943 2.77027
0.806198 -16.2943 2.77027
-1.04618 -15.541 2.73355
-0.960113 -15.7362 2.57531
0.960113 -15.7362 2.57531
1.04618 -15.541 2.73355
-1.24265 -14.5801 2.73427
1.24265 -14.5801 2.73427
-1.27599 -14.224 2.68796
1.27599 -14.224 2.68796
-1.32045 -13.8048 2.70846
1.32045 -13.8048 2.70846
-1.32179 -4.46 2.70027
1.32179 -4.46 2.70027
-1.34999 -3.27492 2.56203
1.3475 -3.25186 2.57479
-1.36467 -2.7619 2.66286
1.36395 -2.75707 2.66315
-1.35921 -2.20726 2.71408
1.35929 -2.23064 2.71246
-1.35592 -1.55213 2.67387
1.35592 -1.55216 2.67387
-1.36662 -1.27114 2.69614
1.3667 -1.27167 2.69615
-1.35247 -0.805552 2.64183
1.35247 -0.805548 2.64183
-1.37004 -0.196387 2.58339
1.37004 -0.196393 2.58339
-1.35607 0.152232 2.52532
1.35607 0.152229 2.52532
-4.62 1.18 2.83809
-3.95572 1.12941 2.72545
-1.32204 3.07201 2.69977
1.3041 3.3 2.60876
-1.31871 7.36767 2.70396
-1.30582 8.82 2.7346
-1.11008 10.644 2.6445
1.13365 10.7347 2.79367
-0.827568 11.8817 2.61664
0.884229 11.9468 2.73055
-0.802402 12.4476 2.80348
-0.589128 12.7589 2.68057
-0.222777 12.9424 2.52147
0.673308 12.66 2.71896
-0.444004 13.3671 2.8043
0.296881 13.0973 2.60931
-0.076862 -17.5702 3.0667
0.080585 -17.5706 3.06392
-0.195624 -17.3275 3.22524
0.234878 -17.2605 3.25539
-0.578562 -16.7827 3.36207
-0.473134 -16.8348 3.46197
0.485377 -16.802 3.48537
0.578582 -16.78 3.36316
0.747284 -16.3458 3.4476
-1.07796 -15.5112 3.025
-0.940693 -15.8418 3.39005
0.999936 -15.7198 3.2905
1.07796 -15.5112 3.025
-1.22142 -14.7876 3.18083
1.22142 -14.7876 3.18083
-1.28111 -14.2569 3.31229
1.28111 -14.2569 3.31229
-1.32011 -13.8122 3.34296
1.32027 -13.8118 3.34244
-1.32163 7.78051 3.32002
1.32159 7.77968 3.31996
1.33465 8.82 3.0734
-1.29133 9.14 3.3638
-1.25797 9.72357 3.24332
-1.21367 10.2831 3.41758
-1.17147 10.8268 3.31928
1.16443 10.8352 3.46466
-0.967443 12.3854 3.23038
0.966035 12.3947 3.23181
0.730631 13.1813 3.07018
-0.648684 13.8188 3.26525
-0.300391 14.8123 3.32469
-0.207285 15.0676 3.36262
-0.009312 -17.0009 3.52425
-0.439884 -16.6381 3.70944
0.274743 -16.7324 3.68189
-0.437398 -16.4049 3.93893
0.437075 -16.3901 3.95566
0.507221 -16.1828 3.99263
-0.990576 -15.5282 3.56582
0.793445 -15.8842 3.72599
-1.09227 -14.6517 3.78657
1.1022 -14.6844 3.75197
-1.23705 -13.78 3.67054
1.23705 -13.78 3.67054
1.23746 7.74 3.67081
-1.20401 9.3 3.68972
-1.18568 9.53844 3.71025
1.11731 9.68 3.84348
-1.10647 10.6116 3.77795
1.10894 10.6079 3.77421
0.998609 11.5201 3.876
-0.945778 12.2869 3.8231
0.998003 12.2075 3.62501
-0.916456 12.8176 3.51048
0.901402 12.54 3.8962
-0.821299 13.3103 3.95766
0.818208 13.3127 3.95524
-0.787417 13.728 3.89345
0.794253 13.6965 3.87659
-0.712827 14.2595 3.85324
0.712992 14.2596 3.85351
-0.621058 14.7316 3.82871
0.622343 14.7171 3.82732
-0.536086 15.2248 3.84824
-0.444195 15.2107 3.66327
0.42527 15.4288 3.74256
0.544209 15.2269 3.86132
-0.616287 15.7137 3.95577
-0.450036 15.7117 3.91201
0.449819 15.7269 3.92632
0.616381 15.7136 3.95575
-0.327228 16.1275 3.91854
0.21964 16.3792 3.89657
-0.171337 16.7089 3.99107
-0.146805 -16.3541 4.0896
0.340016 -16.2958 4.06541
0.740651 -15.5021 4.04213
-0.842444 -15.089 4.06907
-0.197418 -15.4876 4.40545
0.197134 -15.4833 4.40701
-0.478301 -14.7038 4.46923
0.487139 -14.74 4.45736
0.790633 -14.7412 4.21702
-0.818428 -14.3 4.25629
0.961275 -13.8132 4.16414
-0.962903 8.82 4.16669
0.940302 9.02 4.1866
0.816084 9.71419 4.29391
0.873038 10.6961 4.19779
-0.644116 11.38 4.40849
-0.843235 11.6198 4.15514
0.675185 12.828 4.29998
-0.836204 13.3243 4.08085
0.860223 13.3326 4.05045
1.1103 13.4424 4.0655
-1.10148 13.5435 4.11095
-0.707609 13.7784 4.14425
0.716811 13.7946 4.12582
1.13144 13.5314 4.06656
-0.665803 14.3122 4.14331
0.652083 14.3111 4.14787
-0.609118 14.7647 4.14136
0.609132 14.7642 4.14099
-0.547115 15.3723 4.10341
-0.378669 15.3043 4.46133
0.443789 15.2059 4.36596
0.552877 15.3133 4.1062
-0.524778 15.6431 4.04567
-0.45487 15.7483 4.1068
0.462541 15.7395 4.08106
0.523955 15.6424 4.04606
-2.23374 16.2893 4.16742
-1.55101 16.0288 4.16487
-0.316575 16.4255 4.39198
0.285077 16.4753 4.02805
2.23378 16.2893 4.16746
-0.0918767 16.9205 4.31329
0.108794 16.8845 4.30957
-0.139766 17.0826 4.2944
0.116047 17.0827 4.28521
-0.131848 -14.7904 4.55381
0.135335 -14.6806 4.57139
-0.014051 -12.7849 4.72031
0.00914518 -12.8103 4.75541
-0.0608503 -10.7398 4.69271
0.0624434 -10.7474 4.68673
-0.0840073 -10.2865 4.67268
0.0537535 -10.2897 4.6913
-0.0535623 -1.71503 4.65557
0.0551452 -1.61914 4.66463
-0.098164 -1.13384 4.64938
0.002345 -1.18082 4.66219
-0.098844 -0.909465 4.65001
0.036367 -0.932536 4.66952
-0.0198079 5.19032 4.69688
0.0143895 5.22922 4.73964
1.9e-05 9.97526 4.6597
-0.0233978 10.1247 4.68767
0.01088 10.1097 4.72791
-0.019866 10.958 4.67738
0.018831 10.9403 4.66959
-0.0918683 11.3209 4.6732
0.0820463 11.2639 4.67866
-0.151186 11.8193 4.64631
0.115745 11.7032 4.6705
-0.109273 12.0469 4.69894
0.120876 12.498 4.69682
-0.150066 12.5436 4.65703
0.148219 12.531 4.65801
-0.182441 13.2275 4.64235
0.18534 13.2836 4.63919
-0.192837 15.2053 4.6222
0.173471 15.1582 4.64768
-0.0621809 15.82 4.67049
0.0655661 15.8122 4.669
-0.176036 16.3566 4.58824
-0.08885 16.918 4.57462
0.0877588 16.9035 4.56902
-0.110721 17.0794 4.56562
0.101658 17.076 4.5723
0.037762 16.0771 5.36192
