ply
format ascii 1.0
comment Generated by Slim Ghodhbane
element vertex 1864
property double x
property double y
property double z
end_header
-17.1683 69.0432 -1.94556
-1.44477 69.0274 -1.79282
-16.998 69.5498 -1.82393
-1.6005 69.8146 -1.84212
-1.40289 69.4121 -1.96563
-16.5541 70.1375 -1.75647
-16.0176 70.1358 -1.58031
-14.5772 70.3457 -1.5997
-13.6889 70.3446 -1.60808
-13.3514 70.3238 -1.59926
-12.8525 70.3207 -1.59593
-12.3807 70.3364 -1.60117
-11.8569 70.3205 -1.59287
-11.2957 70.3273 -1.59617
-10.7091 70.2824 -1.58046
-9.29008 70.2997 -1.57737
-7.68093 70.2346 -1.58858
-6.50653 70.341 -1.62811
-3.05169 70.2614 -1.58377
-1.89746 70.3096 -1.84614
-16.5242 70.4909 -2.00613
-15.9812 70.578 -1.82884
-15.5313 70.5437 -1.73467
-15.0499 70.6432 -1.76332
-14.3489 70.5725 -1.71654
-13.9252 70.7227 -1.79633
-13.2907 70.7192 -1.79545
-12.7343 70.6718 -1.77001
-12.2773 70.7895 -1.83415
-11.7587 70.7177 -1.7956
-11.2724 70.604 -1.73385
-10.6625 70.5841 -1.72498
-10.2309 70.7099 -1.79312
-9.72643 70.5067 -1.68426
-9.19487 70.5322 -1.68949
-8.66278 70.6443 -1.75791
-8.10888 70.5532 -1.7199
-7.63933 70.656 -1.78026
-7.11861 70.5697 -1.74035
-6.61885 70.6735 -1.78501
-6.06078 70.5202 -1.69941
-5.43136 70.6092 -1.73839
-4.80102 70.6897 -1.78885
-4.40599 70.5523 -1.72474
-3.89879 70.6358 -1.77011
-3.35773 70.684 -1.78758
-2.77831 70.6371 -1.76559
-2.38013 70.6266 -1.80841
-15.5369 70.9392 -1.976
-15.0134 71.0644 -2.00765
-14.4762 71.1012 -2.0163
-13.87 71.1061 -2.01666
-13.3097 71.2342 -2.09179
-13.005 71.1115 -2.0192
-12.4053 71.1281 -2.02896
-11.8819 71.0815 -2.00124
-11.331 71.0084 -1.95997
-10.8779 71.0296 -1.97268
-10.2936 71.1076 -2.01689
-9.61493 71.009 -1.95869
-9.18447 70.9382 -1.91695
-8.78848 71.0733 -1.99632
-8.14308 71.0434 -1.9842
-7.66086 71.0835 -2.00673
-6.9888 71.1207 -2.02805
-6.51953 71.0476 -1.98581
-6.0097 71.0767 -2.00089
-5.46946 71.0574 -1.98858
-5.02052 71.0597 -1.99107
-4.56468 71.0861 -2.00965
-3.90734 71.103 -2.01845
-3.35685 71.0325 -1.9706
-2.39811 70.9995 -1.98427
-12.2507 5.77367 -1.2746
-11.7428 5.77441 -1.27178
-10.0317 5.74603 -1.27184
-9.67457 5.66252 -1.2801
-9.02758 5.74202 -1.28532
-8.85957 5.60891 -1.28782
-8.18384 5.52903 -1.28076
-7.64037 5.5273 -1.27551
-7.0821 5.52403 -1.27288
-6.57225 5.52088 -1.2727
-6.06862 5.60776 -1.27282
-5.49877 5.64268 -1.27296
-4.85386 5.61382 -1.27312
-4.58895 5.64061 -1.27319
-3.93131 5.52317 -1.27335
-3.26606 5.53135 -1.27351
-2.90693 5.65504 -1.2736
-2.36359 5.56537 -1.27523
-1.83259 5.59827 -1.32162
-1.38388 5.62724 -1.55546
-16.3744 5.99373 -1.50101
-15.4956 6.0584 -1.30075
-15.0632 5.95994 -1.29902
-14.4505 6.07771 -1.28274
-13.979 5.94006 -1.28524
-13.3366 5.9466 -1.27724
-12.7926 5.92379 -1.27387
-12.3366 6.0842 -1.2714
-11.9391 6.02908 -1.27145
-11.3887 6.12157 -1.27151
-10.7435 5.90412 -1.27167
-10.2033 6.10219 -1.2718
-9.76097 6.00385 -1.27194
-9.18961 6.03402 -1.27345
-8.62375 6.01041 -1.27702
-7.98088 5.99611 -1.27454
-7.53634 6.01415 -1.27273
-7.15957 6.05778 -1.27255
-6.52059 5.94911 -1.27271
-6.14984 6.12456 -1.2728
-5.41978 6.07435 -1.27298
-5.06292 6.08695 -1.27307
-4.55838 6.06355 -1.27319
-3.85638 6.05083 -1.27337
-3.32802 6.05626 -1.2735
-2.96857 6.1425 -1.27359
-2.32229 6.03191 -1.27572
-1.73237 5.99928 -1.34722
-1.3344 6.13634 -1.53121
-16.5148 6.50752 -1.43514
-16.0389 6.55517 -1.32994
-15.4687 6.4502 -1.28482
-14.9851 6.57862 -1.27467
-14.4579 6.59709 -1.27159
-13.8547 6.64087 -1.27102
-13.3103 6.55496 -1.27111
-12.8946 6.55187 -1.27116
-12.3177 6.48885 -1.27128
-11.907 6.57035 -1.27138
-11.2952 6.62469 -1.27153
-10.648 6.54871 -1.27169
-10.3133 6.54972 -1.27177
-9.68735 6.58799 -1.27193
-9.17713 6.47397 -1.27209
-8.61593 6.62412 -1.27239
-8.08195 6.52861 -1.27245
-7.61246 6.69945 -1.27244
-7.04956 6.52685 -1.27258
-6.51133 6.55064 -1.27271
-6.05146 6.54123 -1.27282
-5.67267 6.51891 -1.27292
-4.92707 6.50642 -1.2731
-4.36912 6.5109 -1.27324
-3.96924 6.48886 -1.27334
-3.45008 6.63803 -1.27347
-2.88814 6.61226 -1.2736
-2.29127 6.67654 -1.2753
-1.87655 6.72383 -1.29428
-1.38185 6.54033 -1.47535
-16.5927 7.04233 -1.45246
-16.0232 7.03512 -1.33121
-15.5185 6.99496 -1.29532
-14.9857 7.08147 -1.27707
-14.4625 7.15846 -1.27163
-13.8804 7.20713 -1.27089
-13.4527 6.9446 -1.271
-12.81 7.12712 -1.27116
-12.4215 7.04106 -1.27125
-11.8465 7.03368 -1.2714
-11.4271 7.12378 -1.2715
-10.7822 7.13992 -1.27166
-10.0877 7.23311 -1.27183
-9.68254 7.07007 -1.27193
-9.17645 7.05324 -1.27205
-8.71313 7.10498 -1.27217
-8.08889 7.09036 -1.27232
-7.61599 7.29064 -1.27244
-7.03454 7.08244 -1.27258
-6.56327 7.01683 -1.2727
-5.99224 7.1102 -1.27284
-5.46319 6.98519 -1.27297
-4.94351 7.04687 -1.2731
-4.35003 6.96849 -1.27324
-4.0545 7.14332 -1.27332
-3.52443 6.94012 -1.27345
-2.88283 6.99591 -1.27361
-2.37489 7.12128 -1.27373
-1.87812 7.04538 -1.27779
-1.37144 7.10231 -1.42273
-16.8354 7.62701 -1.55188
-16.5055 7.56986 -1.40978
-16.0388 7.60884 -1.3309
-15.5058 7.50451 -1.29347
-15.0409 7.63219 -1.27821
-14.3896 7.59077 -1.27099
-13.8179 7.63901 -1.27091
-13.2939 7.60097 -1.27104
-12.8838 7.66281 -1.27114
-12.2828 7.68 -1.27129
-11.6878 7.64754 -1.27143
-11.2885 7.49342 -1.27153
-10.7514 7.672 -1.27167
-10.1163 7.68593 -1.27182
-9.81107 7.55231 -1.2719
-9.14129 7.64553 -1.27206
-8.61036 7.64917 -1.27219
-7.99859 7.7141 -1.27234
-7.53824 7.81113 -1.27246
-7.10751 7.47 -1.27256
-6.59109 7.64811 -1.27269
-5.98731 7.67461 -1.27284
-5.51457 7.63465 -1.27296
-4.98702 7.5926 -1.27309
-4.42753 7.55212 -1.27323
-3.88484 7.73974 -1.27336
-3.36807 7.51977 -1.27349
-2.92257 7.61074 -1.2736
-2.31058 7.60238 -1.27375
-1.95711 7.67748 -1.27608
-1.37007 7.61668 -1.38905
-16.9097 8.11655 -1.57193
-16.5615 8.0708 -1.39835
-16.0893 8.17363 -1.31524
-15.3876 8.03962 -1.28285
-15.0244 8.37475 -1.2734
-14.5439 8.15144 -1.27101
-13.9367 8.1976 -1.27088
-13.2929 8.16522 -1.27104
-12.9186 8.14483 -1.27113
-12.3615 8.2082 -1.27127
-11.9375 8.06378 -1.27137
-11.389 8.08624 -1.27151
-10.7297 8.08009 -1.27167
-10.2495 8.04166 -1.27179
-9.71413 8.1244 -1.27192
-9.16268 8.09291 -1.27206
-8.73367 8.23818 -1.27216
-8.31802 8.12782 -1.27227
-7.59076 8.24316 -1.27244
-7.05798 8.16191 -1.27258
-6.65052 8.08451 -1.27268
-6.00634 8.20222 -1.27284
-5.38775 8.25891 -1.27299
-5.01585 8.19293 -1.27308
-4.56652 8.20263 -1.27319
-3.86491 8.15013 -1.27336
-3.45596 8.16432 -1.27347
-2.92797 8.10875 -1.2736
-2.43479 8.13637 -1.27557
-1.83775 8.08655 -1.28583
-1.39842 8.13435 -1.41652
-16.8017 8.85881 -1.43798
-16.5016 8.62833 -1.35504
-15.8802 8.42464 -1.29575
-15.4312 8.68175 -1.27861
-14.8008 8.83757 -1.27095
-14.5382 8.65166 -1.27087
-13.8498 8.76189 -1.2709
-13.5847 8.50278 -1.27097
-12.8388 8.76126 -1.27115
-12.3363 8.70248 -1.27127
-11.8149 8.71666 -1.2714
-11.286 8.62119 -1.27153
-10.8404 8.60152 -1.27164
-10.2875 8.58889 -1.27178
-9.73846 8.74861 -1.27191
-9.12322 8.67598 -1.27207
-8.67984 8.74809 -1.27218
-8.11653 8.59588 -1.27231
-7.57792 8.60417 -1.27245
-7.33368 8.77283 -1.27251
-6.62549 8.62933 -1.27268
-6.03549 8.59828 -1.27283
-5.42356 8.72847 -1.27298
-4.98424 8.67708 -1.27309
-4.56037 8.60772 -1.27319
-3.94294 8.60634 -1.27334
-3.39672 8.67459 -1.27362
-2.83394 8.67207 -1.27565
-2.60068 8.5857 -1.27812
-1.8867 8.72891 -1.3426
-1.4184 8.48215 -1.4715
-16.9468 9.16002 -1.57038
-16.5332 9.31339 -1.3469
-15.8939 9.13956 -1.28511
-15.6319 9.00167 -1.27864
-14.9662 9.28441 -1.27084
-14.4796 9.25688 -1.27075
-14.0108 9.09899 -1.27086
-13.348 9.14458 -1.27102
-12.9322 9.25763 -1.27113
-12.5355 9.2011 -1.27122
-11.7979 9.22665 -1.27141
-11.2109 9.19694 -1.27155
-10.6749 9.20219 -1.27168
-10.1341 9.2792 -1.27182
-9.72301 9.10647 -1.27192
-9.16848 9.24881 -1.27206
-8.48255 9.09674 -1.27222
-8.12012 9.11643 -1.27231
-7.64857 9.16286 -1.27243
-7.06356 9.13977 -1.27257
-6.55985 9.19904 -1.2727
-6.0079 9.16934 -1.27284
-5.50123 9.39059 -1.27296
-5.09438 9.17031 -1.27306
-4.41752 9.18566 -1.27323
-3.7452 9.24436 -1.27339
-3.24156 9.42774 -1.2747
-2.73989 9.20856 -1.28368
-2.31771 9.13128 -1.31529
-1.66796 9.21739 -1.47646
-16.5913 9.76865 -1.38685
-15.9331 9.73111 -1.28701
-15.4541 9.64721 -1.27282
-14.9404 9.73278 -1.27076
-14.4444 9.77581 -1.27075
-13.912 9.67883 -1.27089
-13.4395 9.71714 -1.271
-12.8542 9.6816 -1.27115
-12.2922 9.64643 -1.27128
-11.8069 9.83005 -1.2714
-11.2757 9.65429 -1.27154
-10.6652 9.76007 -1.27169
-10.2518 9.70833 -1.27179
-9.85711 9.72442 -1.27189
-9.20653 9.69601 -1.27205
-8.79514 9.73787 -1.27215
-8.07505 9.68887 -1.27233
-7.55895 9.84034 -1.27245
-7.11795 9.66709 -1.27256
-6.5455 9.76722 -1.2727
-5.90616 9.6069 -1.27286
-5.50683 9.94746 -1.27296
-5.03492 9.74731 -1.27307
-4.44808 9.83005 -1.27322
-4.07952 9.67366 -1.27331
-3.61644 9.82364 -1.27365
-2.8262 9.75212 -1.28946
-2.31197 9.63314 -1.34096
-1.83133 9.64614 -1.45191
-16.5226 10.1533 -1.41791
-16.083 10.2414 -1.31513
-15.5067 10.118 -1.27489
-15.0055 10.2168 -1.27077
-14.3461 10.3606 -1.27078
-13.9568 10.253 -1.27087
-13.3598 10.1799 -1.27102
-12.8761 10.2809 -1.27114
-12.2713 10.1796 -1.27129
-11.8361 10.1859 -1.2714
-11.4043 10.1525 -1.2715
-10.5821 10.2102 -1.27171
-10.1297 10.3479 -1.27182
-9.67453 10.2335 -1.27193
-9.17539 10.2122 -1.27205
-8.67042 10.1457 -1.27218
-7.99379 10.2593 -1.27234
-7.5836 10.418 -1.27245
-7.13296 10.2254 -1.27256
-6.54863 10.1601 -1.2727
-6.02992 10.0758 -1.27283
-5.51858 10.4235 -1.27296
-5.08588 10.2298 -1.27306
-4.528 10.2662 -1.2732
-4.07625 10.2379 -1.27331
-3.45425 10.2676 -1.27448
-2.82994 10.2479 -1.28962
-2.31066 10.2583 -1.3361
-1.55072 10.2924 -1.51649
-16.4765 10.7139 -1.47015
-15.996 10.7197 -1.32416
-15.5177 10.6913 -1.27751
-15.0479 10.738 -1.27089
-14.4515 10.8015 -1.27075
-13.8868 10.7228 -1.27089
-13.3558 10.8273 -1.27102
-12.9373 10.8511 -1.27113
-12.4557 10.7279 -1.27124
-11.7822 10.7908 -1.27141
-11.282 10.7143 -1.27153
-10.8702 10.7527 -1.27164
-10.2578 10.7685 -1.27179
-9.81277 10.7876 -1.2719
-9.09832 10.7846 -1.27207
-8.64557 10.784 -1.27218
-8.08884 10.7084 -1.27232
-7.63636 10.8854 -1.27243
-7.15101 10.6622 -1.27255
-6.42156 10.6117 -1.27273
-6.02145 10.7538 -1.27283
-5.6014 10.8819 -1.27294
-4.98222 10.8445 -1.27309
-4.51968 10.6268 -1.2732
-3.98572 10.7503 -1.27334
-3.42202 10.8333 -1.27374
-2.89609 10.7292 -1.2813
-2.3769 10.8277 -1.29305
-1.85286 10.744 -1.34637
-1.33225 10.6362 -1.56287
-16.387 11.4219 -1.48872
-15.9593 11.3673 -1.33163
-15.3557 11.2987 -1.27487
-14.9569 11.2518 -1.27083
-14.4407 11.3562 -1.27075
-13.7963 11.1841 -1.27091
-13.3527 11.4457 -1.27102
-12.6012 11.3231 -1.27121
-12.2581 11.0683 -1.27129
-12.0094 11.3396 -1.27136
-11.204 11.3142 -1.27155
-10.6959 11.2919 -1.27168
-10.2584 11.3276 -1.27179
-9.64509 11.3458 -1.27194
-9.15959 11.1958 -1.27206
-8.6266 11.2405 -1.27219
-8.11331 11.2972 -1.27232
-7.44854 11.189 -1.27248
-7.1108 11.228 -1.27256
-6.52621 11.2244 -1.27271
-6.05192 11.4124 -1.27282
-5.50766 11.2809 -1.27296
-5.17714 11.3549 -1.27304
-4.47259 11.2677 -1.27321
-3.89032 11.2385 -1.27336
-3.41792 11.2916 -1.2735
-2.84542 11.3301 -1.274
-2.50861 11.3518 -1.27547
-1.79573 11.1701 -1.3137
-1.41067 11.3805 -1.4143
-16.5032 11.746 -1.55877
-15.9767 11.8538 -1.33233
-15.4924 11.7816 -1.27842
-14.8304 11.7883 -1.27066
-14.4575 11.8745 -1.27075
-13.8983 11.8199 -1.27089
-13.3822 11.9461 -1.27102
-12.8829 11.7669 -1.27114
-12.3633 11.8344 -1.27127
-11.7627 11.8957 -1.27141
-11.3089 11.9093 -1.27153
-10.67 11.8351 -1.27168
-10.2084 11.8662 -1.2718
-9.7626 11.6792 -1.27191
-9.25267 11.8122 -1.27203
-8.58497 11.8302 -1.2722
-8.10706 11.8267 -1.27232
-7.54251 11.805 -1.27246
-7.13442 11.5841 -1.27256
-6.60658 11.9435 -1.27269
-6.06873 11.9056 -1.27282
-5.51869 11.8372 -1.27296
-4.9697 11.6821 -1.27309
-4.62943 11.8039 -1.27318
-3.91713 11.7911 -1.27336
-3.38979 11.8142 -1.27349
-2.92255 11.7934 -1.27366
-2.44626 12.0415 -1.27382
-2.09045 11.7559 -1.27692
-1.22445 11.8132 -1.50346
-16.5091 12.2359 -1.46529
-16.1399 12.2334 -1.33325
-15.5431 12.4375 -1.274
-14.9635 12.1793 -1.27075
-14.3972 12.5041 -1.27077
-13.8372 12.2788 -1.2709
-13.332 12.509 -1.27103
-12.9515 12.1652 -1.27112
-12.3225 12.4 -1.27128
-11.676 12.2834 -1.27144
-11.2778 12.4893 -1.27153
-10.8035 12.3964 -1.27165
-10.1725 12.367 -1.27181
-9.69493 12.3416 -1.27192
-9.15033 12.3303 -1.27206
-8.69537 12.4225 -1.27217
-8.1804 12.3308 -1.2723
-7.55783 12.3432 -1.27245
-7.07304 12.269 -1.27257
-6.63966 12.4299 -1.27268
-6.06419 12.2946 -1.27282
-5.54349 12.2309 -1.27295
-5.0046 12.2803 -1.27308
-4.41483 12.2041 -1.27323
-4.06148 12.3566 -1.27332
-3.34257 12.3379 -1.27352
-2.83326 12.275 -1.27367
-2.40818 12.3321 -1.27416
-1.77039 12.2669 -1.29261
-1.25242 12.432 -1.50238
-16.4939 12.8755 -1.34153
-16.0051 12.7616 -1.28198
-15.4198 12.9908 -1.27077
-14.9513 12.8018 -1.27063
-14.4164 12.9763 -1.27076
-13.8898 12.7576 -1.27089
-13.3745 12.9717 -1.27102
-12.8447 12.756 -1.27115
-12.2444 12.9641 -1.2713
-11.7106 12.8537 -1.27143
-11.1955 12.8914 -1.27156
-10.6175 12.8095 -1.2717
-10.2833 12.931 -1.27178
-9.70266 12.9265 -1.27192
-9.17073 12.8519 -1.27205
-8.62141 12.8815 -1.27219
-8.15849 12.7773 -1.2723
-7.63201 12.8939 -1.27243
-7.11532 12.8151 -1.27256
-6.56468 12.9248 -1.2727
-6.07936 12.8736 -1.27282
-5.57804 12.7416 -1.27294
-5.13468 12.85 -1.27305
-4.44597 12.8112 -1.27322
-3.90205 12.8631 -1.27337
-3.46417 12.879 -1.2736
-2.94178 12.7601 -1.27431
-2.4783 12.8069 -1.27587
-1.8116 12.8196 -1.29543
-1.28339 13.0614 -1.48472
-16.8922 13.3845 -1.55187
-16.5089 13.5772 -1.33544
-16.077 13.2278 -1.27534
-15.5454 13.3655 -1.27085
-14.8588 13.3951 -1.27065
-14.3574 13.4337 -1.27078
-13.9019 13.2366 -1.27089
-13.5203 13.5463 -1.27098
-12.9096 13.375 -1.27113
-12.3263 13.3756 -1.27128
-11.7411 13.3442 -1.27142
-11.336 13.6478 -1.27152
-10.7777 13.4475 -1.27166
-10.1675 13.4148 -1.27181
-9.6255 13.268 -1.27194
-9.13854 13.3047 -1.27206
-8.61358 13.3538 -1.27219
-8.05278 13.3496 -1.27233
-7.68204 13.42 -1.27242
-7.10064 13.3888 -1.27257
-6.571 13.3318 -1.2727
-6.0515 13.3658 -1.27282
-5.43966 13.2572 -1.27297
-5.02935 13.1869 -1.27308
-4.56293 13.3986 -1.2732
-3.9452 13.4319 -1.27341
-3.3951 13.2432 -1.27434
-2.75936 13.3272 -1.27894
-2.32076 13.2179 -1.28279
-1.89132 13.2934 -1.30006
-1.46634 13.4177 -1.37712
-16.46 14.0573 -1.38748
-15.9585 13.7787 -1.28474
-15.4545 13.9913 -1.27709
-14.8849 13.7612 -1.27078
-14.358 14.0266 -1.27077
-13.9914 13.8449 -1.27087
-13.3721 13.9942 -1.27102
-12.8426 14.0939 -1.27115
-12.3793 13.893 -1.27126
-11.6976 13.8275 -1.27143
-11.3259 14.0153 -1.27152
-10.8234 13.9291 -1.27165
-10.3122 13.8742 -1.27177
-9.77184 13.883 -1.27191
-9.11986 13.8092 -1.27207
-8.52954 13.8183 -1.27221
-8.11903 13.9629 -1.27231
-7.67621 13.7703 -1.27242
-7.17046 13.8735 -1.27255
-6.62937 13.9138 -1.27268
-5.97001 13.9738 -1.27284
-5.62631 13.6759 -1.27293
-5.1018 13.7929 -1.27306
-4.49111 13.8994 -1.27322
-3.87678 13.8941 -1.27344
-3.28335 13.7206 -1.27509
-2.86626 13.8387 -1.27931
-2.43071 13.7213 -1.2885
-1.95573 13.813 -1.31369
-1.39864 13.8219 -1.45613
-16.5626 14.3889 -1.50902
-16.0552 14.3102 -1.34962
-15.5268 14.46 -1.2974
-15.0718 14.4376 -1.27617
-14.4902 14.5124 -1.2709
-13.8791 14.353 -1.27089
-13.4037 14.2936 -1.27101
-12.9603 14.4749 -1.27112
-12.3945 14.4789 -1.27126
-11.8535 14.4443 -1.27139
-11.2953 14.6361 -1.27153
-10.7415 14.4275 -1.27167
-10.1773 14.3904 -1.27181
-9.50075 14.5306 -1.27197
-9.24553 14.3725 -1.27204
-8.74795 14.347 -1.27216
-8.13832 14.4299 -1.27231
-7.51995 14.3809 -1.27246
-7.12692 14.572 -1.27256
-6.64563 14.3784 -1.27268
-6.01377 14.4573 -1.27283
-5.53658 14.4714 -1.27295
-4.98529 14.3827 -1.27309
-4.32256 14.5314 -1.27327
-3.85899 14.4178 -1.27341
-3.39736 14.4205 -1.27397
-2.95058 14.3653 -1.27592
-2.26933 14.3766 -1.29015
-1.77481 14.2657 -1.34014
-1.42988 14.3909 -1.4664
-16.3604 15.1218 -1.50392
-16.0735 14.8714 -1.40982
-15.6307 15.0198 -1.33144
-15.0953 15.2215 -1.27919
-14.4837 15.024 -1.27102
-13.9028 14.8217 -1.27089
-13.3577 14.9699 -1.27102
-12.8997 14.9375 -1.27113
-12.3437 15.0065 -1.27127
-11.8104 14.8573 -1.2714
-11.4071 15.0672 -1.2715
-10.8207 14.9594 -1.27165
-10.2845 15.0381 -1.27178
-9.6726 15.0189 -1.27193
-9.2017 14.9831 -1.27205
-8.66384 14.9123 -1.27218
-8.17998 14.9784 -1.2723
-7.6271 14.9184 -1.27243
-7.12135 14.905 -1.27256
-6.5263 14.8858 -1.27271
-6.0694 15.1001 -1.27282
-5.55732 14.9421 -1.27295
-4.90876 14.9924 -1.27311
-4.40307 15.0709 -1.27325
-3.86967 15.0615 -1.2734
-3.5365 15.035 -1.27351
-2.98453 14.8843 -1.27412
-2.33893 14.9228 -1.27859
-1.78077 15.0221 -1.3141
-1.43769 14.9424 -1.44852
-16.4949 15.5509 -1.52021
-16.0289 15.4857 -1.39126
-15.4864 15.4857 -1.30926
-14.7584 15.4274 -1.27149
-14.4686 15.3793 -1.27075
-13.9459 15.5127 -1.27088
-13.4513 15.4225 -1.271
-12.8768 15.468 -1.27114
-12.3635 15.4811 -1.27127
-11.7368 15.3256 -1.27142
-11.3644 15.6054 -1.27151
-10.7914 15.3584 -1.27165
-10.2697 15.5589 -1.27178
-9.65756 15.49 -1.27193
-9.14674 15.4887 -1.27206
-8.80162 15.4148 -1.27215
-8.38337 15.503 -1.27225
-7.76736 15.3887 -1.2724
-7.16206 15.3473 -1.27255
-6.64206 15.3685 -1.27268
-6.10256 15.3903 -1.27281
-5.49044 15.4591 -1.27296
-4.84508 15.546 -1.27313
-4.43173 15.5425 -1.27325
-3.93542 15.4117 -1.27339
-3.4423 15.5704 -1.27353
-2.87761 15.4116 -1.27372
-2.22167 15.4998 -1.27618
-1.76334 15.5766 -1.31124
-1.38212 15.312 -1.44691
-16.4407 16.0477 -1.43772
-16.0264 15.9707 -1.35443
-15.5707 15.9763 -1.30419
-14.8604 15.8189 -1.27352
-14.5212 16.0176 -1.27096
-13.9696 16.0724 -1.27087
-13.408 15.9371 -1.27101
-12.8572 15.9735 -1.27114
-12.568 16.1758 -1.27122
-11.8923 15.9106 -1.27138
-11.2432 16.159 -1.27154
-10.7894 15.9755 -1.27165
-10.3844 15.9826 -1.27175
-9.87289 16.048 -1.27188
-9.21247 16.0359 -1.27204
-8.61288 15.9747 -1.27219
-8.22705 16.0318 -1.27229
-7.40182 15.837 -1.27249
-7.02259 16.2688 -1.27258
-6.62513 16.0757 -1.27268
-6.11974 15.9219 -1.27281
-5.54754 15.8896 -1.27295
-4.91414 16.0772 -1.27312
-4.35699 16.0342 -1.27327
-4.00927 15.8824 -1.27337
-3.43911 16.0642 -1.27353
-2.8407 16.0306 -1.2737
-2.29902 15.935 -1.27574
-1.8271 16.0515 -1.30181
-1.42606 15.9257 -1.44294
-16.5529 16.604 -1.44265
-16.0429 16.4661 -1.33454
-15.4637 16.448 -1.28913
-15.0101 16.3627 -1.27438
-14.4778 16.5191 -1.27088
-13.8756 16.6134 -1.27089
-13.3401 16.4838 -1.27103
-12.8897 16.659 -1.27114
-12.4036 16.3718 -1.27126
-11.8292 16.4964 -1.2714
-11.2339 16.5779 -1.27155
-10.7262 16.5396 -1.27167
-10.1302 16.4827 -1.27182
-9.59005 16.517 -1.27195
-9.14513 16.4085 -1.27206
-8.54012 16.5715 -1.27221
-8.10213 16.4489 -1.27232
-7.6327 16.5646 -1.27243
-7.00089 16.7907 -1.27259
-6.63626 16.6371 -1.27268
-5.98852 16.559 -1.27284
-5.39706 16.5465 -1.27299
-4.97354 16.6905 -1.27311
-4.41716 16.4576 -1.27326
-3.85341 16.5792 -1.27342
-3.3409 16.5069 -1.27357
-3.02165 16.5988 -1.27365
-2.34036 16.4362 -1.27569
-1.74887 16.6586 -1.33871
-1.41863 16.3682 -1.46267
-16.4419 16.9615 -1.38678
-16.1292 17.0836 -1.32594
-15.4899 17.0053 -1.28796
-14.99 16.883 -1.2753
-14.4739 17.0144 -1.27086
-14.0058 17.0531 -1.27086
-13.3561 16.9926 -1.27102
-12.773 17.0734 -1.27117
-12.3221 17.0533 -1.27128
-11.8773 17.0847 -1.27139
-11.3017 17.1251 -1.27153
-10.7492 17.1139 -1.27166
-10.1558 17.0574 -1.27181
-9.65257 17.1085 -1.27193
-9.20108 16.9853 -1.27205
-8.5899 17.0793 -1.2722
-8.12276 16.9659 -1.27231
-7.67173 17.176 -1.27242
-6.58201 17.0711 -1.27269
-6.05331 16.9812 -1.27283
-5.58487 16.9123 -1.27295
-4.91398 17.0365 -1.27313
-4.34286 17.0969 -1.27329
-3.90833 17.1742 -1.27342
-3.4409 16.9773 -1.27355
-2.92756 17.1258 -1.27369
-2.34488 17.0097 -1.2757
-1.76349 17.0699 -1.3357
-1.39482 16.9989 -1.48908
-16.9165 17.6381 -1.54459
-16.5401 17.4838 -1.37219
-16.0306 17.5438 -1.30122
-15.5687 17.6402 -1.28066
-15.0098 17.4624 -1.2734
-14.4352 17.5217 -1.27086
-13.9288 17.6431 -1.27088
-13.3385 17.5416 -1.27103
-12.7521 17.5976 -1.27117
-12.3078 17.8353 -1.27128
-11.8005 17.5426 -1.2714
-11.4524 17.5341 -1.27149
-10.782 17.678 -1.27166
-10.2083 17.632 -1.2718
-9.75654 17.6719 -1.27191
-9.26698 17.584 -1.27203
-8.6498 17.638 -1.27218
-8.23925 17.5575 -1.27228
-7.75688 17.7274 -1.2724
-7.08699 17.641 -1.27257
-6.11702 17.5527 -1.27281
-5.46549 17.5674 -1.27298
-5.04148 17.5339 -1.2731
-4.51666 17.6481 -1.27325
-3.89029 17.4871 -1.27343
-3.42011 17.4771 -1.27356
-2.88737 17.6457 -1.27371
-2.29376 17.5455 -1.27582
-1.91854 17.7987 -1.30127
-1.53043 17.4531 -1.40974
-16.6235 18.1184 -1.37405
-15.968 18.1424 -1.27931
-15.3146 18.0851 -1.27212
-14.9234 18.0342 -1.27088
-14.4452 18.0949 -1.27075
-13.9781 18.19 -1.27087
-13.2832 18.0421 -1.27104
-12.8996 18.2562 -1.27113
-11.8305 18.0105 -1.2714
-11.265 18.0649 -1.27154
-10.798 18.1003 -1.27165
-10.2633 18.2021 -1.27178
-9.68395 18.0746 -1.27193
-9.28953 18.1179 -1.27202
-8.79411 18.1274 -1.27215
-8.1761 18.0658 -1.2723
-7.58655 18.1307 -1.27244
-7.12249 18.2516 -1.27256
-6.68159 17.8972 -1.27267
-6.12497 18.1173 -1.27281
-5.64819 18.1985 -1.27294
-5.19688 17.9765 -1.27306
-4.57368 18.1209 -1.27324
-3.99972 18.1768 -1.27341
-3.41764 18.0817 -1.27357
-2.85005 18.0392 -1.27373
-2.2764 18.1056 -1.27555
-1.78036 18.3559 -1.315
-1.39407 18.0981 -1.48709
-16.4511 18.6792 -1.3735
-15.865 18.6858 -1.27323
-15.5244 18.6503 -1.27058
-15.0693 18.5673 -1.2706
-14.4854 18.7246 -1.27074
-13.8624 18.5166 -1.2709
-13.3839 18.6626 -1.27101
-12.8488 18.6544 -1.27115
-12.2611 18.5196 -1.27129
-11.6469 18.5504 -1.27144
-11.135 18.4567 -1.27157
-10.8168 18.6362 -1.27165
-10.1787 18.7209 -1.27181
-9.59759 18.5619 -1.27195
-9.11951 18.618 -1.27207
-8.5306 18.6425 -1.27221
-8.14244 18.4662 -1.27231
-7.68679 18.7158 -1.27242
-7.02564 18.7926 -1.27258
-6.58427 18.4641 -1.27269
-6.04892 18.704 -1.27284
-5.11871 18.5319 -1.27309
-4.47867 18.7031 -1.27328
-3.81695 18.6901 -1.27347
-3.42416 18.6034 -1.27358
-2.85173 18.668 -1.27374
-2.4164 18.645 -1.27437
-1.93753 18.7769 -1.27901
-1.30651 18.584 -1.52057
-16.4667 19.1857 -1.44609
-16.0788 18.941 -1.29295
-15.5909 19.1493 -1.27205
-15.0285 19.1342 -1.27061
-14.3788 19.2656 -1.27077
-13.8571 19.1748 -1.2709
-13.4137 19.2262 -1.27101
-12.8734 19.1452 -1.27114
-12.4588 19.1617 -1.27124
-11.7917 19.1118 -1.27141
-11.2129 18.9725 -1.27155
-10.7371 19.271 -1.27167
-10.1967 19.315 -1.2718
-9.75855 19.1056 -1.27191
-9.18826 19.1427 -1.27205
-8.57215 19.1696 -1.2722
-8.16684 19.2021 -1.2723
-7.64898 19.2348 -1.27243
-6.95249 19.2645 -1.2726
-6.48385 19.2073 -1.27272
-5.95053 19.2929 -1.27287
-5.53004 19.1483 -1.27299
-4.99008 19.1601 -1.27314
-4.38461 19.2054 -1.27331
-4.00893 19.2207 -1.27342
-3.35313 19.1904 -1.27361
-3.0144 19.3744 -1.27371
-2.52164 19.2577 -1.27384
-1.85667 19.0439 -1.29592
-1.26144 19.18 -1.50845
-16.394 19.9488 -1.44559
-16.0805 19.6923 -1.32777
-15.4564 19.8018 -1.2759
-14.9302 19.6977 -1.27069
-14.3521 19.7022 -1.27078
-13.9632 19.731 -1.27087
-13.4585 19.7108 -1.271
-12.8866 19.6626 -1.27114
-12.3004 19.6043 -1.27128
-11.845 19.6445 -1.27139
-11.3685 19.6749 -1.27151
-10.8162 19.7522 -1.27165
-10.4299 19.8282 -1.27174
-9.78915 19.6443 -1.2719
-9.14567 19.6682 -1.27206
-8.62385 19.8451 -1.27219
-8.21093 19.5803 -1.27229
-7.53153 19.6178 -1.27246
-7.08007 19.7962 -1.27257
-6.48813 19.6199 -1.27273
-5.9644 19.7621 -1.27287
-5.67141 19.6973 -1.27295
-4.98472 19.8193 -1.27315
-4.55839 19.7618 -1.27327
-4.02889 19.7024 -1.27342
-3.58422 19.6101 -1.27355
-2.82457 19.5732 -1.27376
-2.39318 19.6877 -1.27387
-1.85203 19.6598 -1.28924
-1.35776 19.808 -1.45056
-16.516 20.3128 -1.51089
-15.8688 20.178 -1.30174
-15.5788 20.2735 -1.28509
-15.1633 20.3801 -1.27414
-14.4599 20.2248 -1.27081
-13.7696 20.2908 -1.27092
-13.3652 20.1714 -1.27102
-12.7841 20.1837 -1.27116
-12.2465 20.1403 -1.27129
-11.7605 20.2512 -1.27141
-11.1666 20.223 -1.27156
-10.8146 20.3145 -1.27165
-10.1811 20.1548 -1.2718
-9.72276 20.2194 -1.27192
-9.15234 20.2797 -1.27206
-8.61716 20.2986 -1.27219
-8.27018 20.2063 -1.27227
-7.73823 20.1278 -1.27241
-7.11543 20.0517 -1.27256
-6.55984 20.2037 -1.27271
-6.0749 20.1013 -1.27285
-5.47978 20.2025 -1.27302
-4.98656 20.3767 -1.27316
-4.44448 20.1667 -1.27331
-3.84731 20.4391 -1.27349
-3.41786 20.1954 -1.2736
-2.87254 20.1708 -1.27375
-2.39971 20.1933 -1.27386
-1.89117 20.1377 -1.29337
-1.38319 20.3755 -1.4641
-16.4316 20.789 -1.41298
-16.033 20.6545 -1.32005
-15.4685 20.8129 -1.28178
-14.8277 20.6883 -1.27109
-14.4224 20.7912 -1.27076
-14.005 20.8444 -1.27086
-13.3303 20.7388 -1.27103
-12.9694 20.6 -1.27112
-12.3936 20.6467 -1.27126
-11.7659 20.8533 -1.27141
-11.2656 20.6577 -1.27154
-10.8809 20.8838 -1.27163
-10.1758 20.6995 -1.27181
-9.58422 20.7786 -1.27195
-9.23046 20.7434 -1.27204
-8.70359 20.7848 -1.27217
-7.97845 20.7222 -1.27235
-7.51055 20.7452 -1.27247
-7.1404 20.7357 -1.27256
-6.58424 20.602 -1.27271
-5.89977 20.7389 -1.2729
-5.62173 20.7824 -1.27298
-5.04391 20.8679 -1.27315
-4.488 20.7002 -1.27331
-4.18317 20.9676 -1.2734
-3.41316 20.8747 -1.27362
-2.89585 20.7834 -1.27376
-2.34455 20.7552 -1.27389
-1.8741 20.7461 -1.29167
-1.30212 20.8718 -1.48222
-16.5143 21.2969 -1.41726
-16.0264 21.094 -1.30402
-15.5015 21.2092 -1.27455
-14.9422 21.2667 -1.27081
-14.5077 21.3374 -1.27074
-13.9114 21.2036 -1.27088
-13.342 21.2403 -1.27102
-12.8228 21.0763 -1.27115
-12.4866 21.2372 -1.27124
-11.7706 21.2744 -1.27141
-11.2403 21.3411 -1.27154
-10.5861 21.3304 -1.2717
-10.2159 21.2218 -1.2718
-9.80075 21.2375 -1.2719
-9.2262 21.2396 -1.27204
-8.78966 21.4573 -1.27215
-8.35475 21.1041 -1.27225
-7.81104 21.2646 -1.27239
-7.01063 21.2968 -1.2726
-6.50109 21.1055 -1.27274
-6.15006 21.1788 -1.27284
-5.5933 21.3376 -1.273
-5.04442 21.2245 -1.27316
-4.42669 21.4072 -1.27333
-3.83759 21.3327 -1.2735
-3.48023 21.436 -1.27361
-2.96559 21.3259 -1.27375
-2.41167 21.0608 -1.27388
-1.74508 21.2169 -1.29611
-1.26452 21.2158 -1.48964
-16.6262 21.7884 -1.46375
-16.0163 21.8202 -1.28274
-15.6389 21.6867 -1.27109
-14.9321 21.7597 -1.27063
-14.3484 21.6963 -1.27078
-13.9862 21.7583 -1.27087
-13.3998 21.7926 -1.27101
-12.9321 21.6528 -1.27113
-12.2402 21.7657 -1.2713
-11.7729 21.677 -1.27141
-11.2521 21.7923 -1.27154
-10.7542 21.8436 -1.27166
-10.2582 21.7572 -1.27178
-9.59113 21.8287 -1.27195
-9.13693 21.7861 -1.27206
-8.684 21.9591 -1.27217
-8.28392 21.8405 -1.27227
-7.62875 21.7754 -1.27244
-7.05118 21.8792 -1.2726
-6.58866 21.844 -1.27273
-6.11005 21.6348 -1.27286
-5.5093 21.8579 -1.27303
-4.95281 21.7665 -1.27319
-4.4246 21.9787 -1.27334
-4.01139 21.9047 -1.27346
-3.38207 21.8403 -1.27364
-2.88794 21.7872 -1.27378
-2.62317 21.5392 -1.27384
-1.81327 21.7839 -1.29124
-1.26473 21.7477 -1.46649
-16.5929 22.2662 -1.45648
-16.0516 22.2387 -1.29541
-15.3384 22.249 -1.27077
-14.8952 22.253 -1.27064
-14.5147 22.3827 -1.27074
-13.9834 22.2704 -1.27087
-13.3072 22.409 -1.27103
-12.7602 22.2958 -1.27117
-12.2172 22.2881 -1.2713
-11.8292 22.3754 -1.2714
-11.3346 22.2194 -1.27152
-10.772 22.4068 -1.27166
-10.2573 22.4295 -1.27178
-9.63784 22.2283 -1.27194
-9.21654 22.2394 -1.27204
-8.69411 22.4163 -1.27217
-8.03019 22.1606 -1.27234
-7.43319 22.3146 -1.2725
-6.82994 22.4256 -1.27267
-6.50085 22.4891 -1.27276
-6.12632 22.3169 -1.27286
-5.55463 22.1888 -1.27303
-4.99478 22.3319 -1.27319
-4.53203 22.3575 -1.27332
-3.9973 22.274 -1.27347
-3.34702 22.2959 -1.27366
-2.86169 22.2399 -1.27383
-2.43036 22.3044 -1.27437
-1.80031 22.357 -1.30057
-1.31454 22.3412 -1.45404
-16.6233 22.833 -1.47639
-16.0525 22.7983 -1.31193
-15.4731 22.771 -1.27586
-14.9328 22.8237 -1.2712
-14.4379 22.775 -1.27077
-13.9699 22.8723 -1.27087
-13.4612 22.812 -1.27099
-12.9876 22.8919 -1.27111
-12.3906 22.7759 -1.27126
-11.8647 22.9155 -1.27139
-11.0877 22.6515 -1.27158
-10.7357 22.7813 -1.27167
-10.1803 22.9171 -1.2718
-9.63604 22.6549 -1.27194
-9.15387 22.9431 -1.27206
-8.77346 22.755 -1.27215
-8.18873 22.8753 -1.2723
-7.63209 22.8185 -1.27245
-7.07126 22.8894 -1.2726
-6.57152 22.9404 -1.27275
-5.99092 22.8978 -1.27291
-5.4856 22.6525 -1.27305
-4.93895 22.7776 -1.27321
-4.3878 22.9221 -1.27337
-3.90312 22.8095 -1.27351
-3.40664 22.8235 -1.27368
-2.94025 22.9108 -1.27404
-2.33047 22.856 -1.27869
-1.8832 22.9364 -1.314
-1.412 22.7046 -1.43029
-16.5315 23.4474 -1.42154
-16.1459 23.3282 -1.32569
-15.4518 23.3371 -1.2805
-14.8647 23.4093 -1.27178
-14.4973 23.3358 -1.27086
-13.8008 23.3236 -1.27091
-13.3441 23.4029 -1.27102
-12.7473 23.3067 -1.27117
-12.255 23.4598 -1.27129
-11.6833 23.3275 -1.27143
-11.3539 23.3324 -1.27152
-10.7504 23.2888 -1.27166
-10.1214 23.3634 -1.27182
-9.81492 23.3313 -1.27189
-9.1758 23.4211 -1.27205
-8.61671 23.3138 -1.27219
-8.04228 23.5833 -1.27235
-7.58084 23.2339 -1.27247
-7.07656 23.4052 -1.27261
-6.64537 23.3513 -1.27273
-6.10687 23.3648 -1.27288
-5.58507 23.3088 -1.27303
-5.0418 23.1718 -1.27319
-4.51791 23.2957 -1.27334
-3.93994 23.4928 -1.27351
-3.37307 23.4108 -1.27394
-2.81892 23.4436 -1.2781
-2.44188 23.4074 -1.28775
-1.79669 23.3853 -1.36205
-1.29544 23.1533 -1.55463
-16.3536 23.9261 -1.34273
-16.0056 23.7962 -1.29842
-15.5499 23.8931 -1.27729
-14.8843 23.9053 -1.27128
-14.4784 23.9445 -1.27078
-13.9071 23.8756 -1.27088
-13.2783 23.952 -1.27104
-12.8631 23.8491 -1.27114
-12.3395 23.7947 -1.27127
-11.7934 23.8846 -1.27141
-11.1884 23.905 -1.27156
-10.8709 23.8576 -1.27163
-10.3128 24.0301 -1.27177
-9.74816 23.748 -1.27191
-9.13899 23.8853 -1.27206
-8.55888 23.8871 -1.27221
-8.01139 23.8517 -1.27236
-7.49128 23.9269 -1.2725
-7.04803 23.8349 -1.27262
-6.56318 23.88 -1.27276
-6.05775 23.8453 -1.27291
-5.55535 23.8076 -1.27305
-5.00625 23.9252 -1.27321
-4.41541 23.8265 -1.27338
-3.9875 23.8667 -1.2735
-3.43947 23.9509 -1.27436
-2.84114 23.9358 -1.28855
-2.40277 23.7167 -1.30475
-1.87737 23.9441 -1.40509
-16.848 24.3151 -1.52431
-16.605 24.348 -1.38871
-16.0601 24.448 -1.2883
-15.433 24.3892 -1.27199
-15.054 24.2519 -1.27099
-14.4155 24.4406 -1.27077
-13.9702 24.1976 -1.27087
-13.4842 24.3705 -1.27099
-12.8195 24.439 -1.27115
-12.433 24.2111 -1.27125
-11.7246 24.3672 -1.27142
-11.2916 24.665 -1.27153
-10.8729 24.3878 -1.27163
-10.1747 24.5075 -1.27181
-9.6558 24.3918 -1.27193
-9.23411 24.412 -1.27204
-8.73169 24.5086 -1.27217
-8.11684 24.4445 -1.27234
-7.67637 24.3153 -1.27245
-7.04359 24.514 -1.27264
-6.50392 24.3432 -1.27279
-6.0969 24.4817 -1.2729
-5.55249 24.4229 -1.27306
-4.84674 24.4212 -1.27326
-4.40491 24.3821 -1.27339
-3.91538 24.367 -1.27353
-3.39637 24.485 -1.27933
-2.74988 24.309 -1.30693
-2.38543 24.3384 -1.35247
-2.04343 24.3382 -1.42195
-16.6115 24.8784 -1.41889
-16.0253 24.926 -1.28621
-15.5618 25.138 -1.27164
-15.0702 24.8037 -1.27076
-14.5429 25.0733 -1.27073
-14.0565 24.7824 -1.27085
-13.3297 24.9371 -1.27103
-12.7803 24.9808 -1.27116
-12.2422 24.7714 -1.2713
-11.7912 24.9988 -1.27141
-11.5088 25.1135 -1.27148
-10.7902 25.0335 -1.27165
-10.3457 24.8873 -1.27176
-9.61407 25.0486 -1.27195
-9.20905 24.8816 -1.27205
-8.72005 25.0595 -1.27218
-8.15309 25.0186 -1.27233
-7.46229 24.9596 -1.27252
-7.06612 24.9551 -1.27264
-6.49009 24.9382 -1.2728
-5.9586 24.917 -1.27295
-5.49143 25.0261 -1.27309
-5.11075 24.713 -1.27319
-4.68703 24.9508 -1.27332
-4.16544 24.9352 -1.27347
-3.50495 24.9238 -1.27881
-2.86371 24.936 -1.31408
-2.26648 24.94 -1.42209
-16.4617 25.4256 -1.37207
-15.9101 25.485 -1.27919
-15.4704 25.6889 -1.27083
-14.9141 25.5436 -1.27064
-14.5374 25.4093 -1.27073
-14.0458 25.3929 -1.27085
-13.3637 25.3905 -1.27102
-12.7706 25.3699 -1.27117
-12.2718 25.5099 -1.27129
-11.8839 25.4547 -1.27138
-11.285 25.5214 -1.27153
-10.7817 25.5311 -1.27166
-10.2601 25.5654 -1.27178
-9.77444 25.4469 -1.27191
-9.11049 25.5692 -1.27208
-8.75682 25.4469 -1.27217
-8.08411 25.3977 -1.27236
-7.74541 25.4359 -1.27245
-7.15519 25.55 -1.27262
-6.57303 25.372 -1.27278
-6.01186 25.6447 -1.27295
-5.50834 25.4004 -1.27309
-4.97111 25.3527 -1.27324
-4.47664 25.494 -1.27338
-4.05676 25.4881 -1.2735
-3.30018 25.4422 -1.27978
-2.84951 25.4259 -1.30414
-2.40471 25.4415 -1.36702
-1.8539 25.4457 -1.50982
-16.5591 26.0282 -1.40377
-16.0122 26.0148 -1.28023
-15.5204 26.1589 -1.27144
-14.835 26.0499 -1.27066
-14.4465 25.9114 -1.27075
-14.0291 25.9789 -1.27085
-13.311 25.9032 -1.27103
-12.8242 26.0718 -1.27115
-12.2872 26.1079 -1.27128
-11.7414 26.0086 -1.27142
-11.1531 25.9583 -1.27156
-10.829 26.118 -1.27164
-10.2959 25.9294 -1.27178
-9.80482 26.0257 -1.2719
-9.17123 25.9588 -1.27206
-8.61371 25.9566 -1.27222
-8.23531 26.0083 -1.27232
-7.68614 25.9836 -1.27248
-7.18783 25.9469 -1.27262
-6.50247 25.991 -1.27281
-5.93337 26.1036 -1.27298
-5.5217 25.9872 -1.27309
-4.92567 25.9868 -1.27326
-4.52677 26.0332 -1.27338
-3.95201 26.0189 -1.27354
-3.47111 26.003 -1.2741
-2.90829 25.9128 -1.2838
-2.26734 26.0106 -1.32475
-1.75992 25.89 -1.45713
-1.47659 26.0208 -1.57296
-16.8978 26.4771 -1.56564
-16.5899 26.5217 -1.36861
-16.0116 26.5089 -1.28107
-15.4483 26.6393 -1.27238
-14.9566 26.4747 -1.27071
-14.332 26.4754 -1.27078
-13.9073 26.5394 -1.27088
-13.3397 26.5132 -1.27102
-12.9129 26.6071 -1.27113
-12.3677 26.5285 -1.27126
-11.8299 26.4531 -1.2714
-11.2809 26.4119 -1.27153
-10.7296 26.4429 -1.27167
-10.1989 26.542 -1.2718
-9.7006 26.5661 -1.27193
-9.19317 26.5108 -1.27206
-8.62258 26.5241 -1.27222
-8.22293 26.5758 -1.27233
-7.60042 26.4709 -1.27251
-7.11179 26.5258 -1.27265
-6.63264 26.5622 -1.27278
-6.07382 26.4032 -1.27294
-5.40153 26.5073 -1.27314
-5.00891 26.598 -1.27325
-4.49272 26.5012 -1.2734
-3.95498 26.6254 -1.27355
-3.41214 26.6027 -1.27371
-2.90958 26.4221 -1.27484
-2.42938 26.6995 -1.28056
-1.84745 26.5228 -1.36884
-1.51725 26.3873 -1.49948
-16.5824 26.9832 -1.35344
-16.1336 26.9892 -1.28626
-15.4431 27.1463 -1.27307
-14.8518 27.1278 -1.27094
-14.4412 26.9351 -1.27077
-13.9774 27.1334 -1.27087
-13.6048 26.8272 -1.27096
-13.0935 27.0423 -1.27109
-12.3106 26.9392 -1.27128
-11.7679 26.8714 -1.27141
-11.2643 26.993 -1.27154
-10.7657 27.2641 -1.27166
-10.3302 27.0002 -1.27177
-9.73192 26.9998 -1.27192
-9.17173 27.0953 -1.27207
-8.70509 27.2489 -1.2722
-8.15865 27.1448 -1.27236
-7.66928 26.9335 -1.27249
-7.13265 27.0634 -1.27265
-6.61005 27.0391 -1.2728
-6.00607 27.0792 -1.27297
-5.57916 26.9214 -1.27309
-5.01416 27.0698 -1.27326
-4.51155 26.9534 -1.2734
-4.06185 27.2234 -1.27353
-3.48015 27.0822 -1.27369
-2.80196 27.0072 -1.27429
-2.15897 27.0542 -1.29689
-1.69207 27.0545 -1.42181
-16.9019 27.6047 -1.52054
-16.5645 27.6009 -1.35647
-15.9536 27.4611 -1.28062
-15.6403 27.7497 -1.27522
-15.0511 27.5685 -1.2716
-14.5244 27.619 -1.27083
-13.9334 27.6955 -1.27088
-13.3874 27.5875 -1.27101
-12.8461 27.4368 -1.27115
-12.2495 27.5387 -1.27129
-11.7068 27.5495 -1.27143
-11.1566 27.6251 -1.27156
-10.77 27.7479 -1.27166
-10.3099 27.4788 -1.27178
-9.68216 27.5665 -1.27194
-9.06613 27.567 -1.27211
-8.6506 27.7006 -1.27223
-8.15808 27.6556 -1.27236
-7.62194 27.5473 -1.27252
-7.01484 27.4843 -1.27269
-6.52236 27.6332 -1.27283
-6.0554 27.5926 -1.27297
-5.52166 27.5905 -1.27312
-4.93343 27.6479 -1.27329
-4.43465 27.4507 -1.27343
-3.98028 27.7694 -1.27356
-3.4379 27.4918 -1.27371
-2.92686 27.5547 -1.27419
-2.46393 27.4036 -1.28027
-1.88285 27.5202 -1.36899
-16.8142 28.0953 -1.4831
-16.4963 28.0999 -1.34889
-15.8804 28.0333 -1.28051
-15.4707 28.1513 -1.27322
-14.9706 28.1074 -1.27142
-14.2117 28.1468 -1.27083
-13.431 28.2142 -1.271
-12.8821 28.0308 -1.27114
-12.3564 28.0868 -1.27127
-11.6712 28.1804 -1.27144
-11.2658 28.1687 -1.27154
-10.9451 28.0705 -1.27162
-10.2767 28.1239 -1.27179
-9.68967 28.0038 -1.27194
-9.27701 28.2297 -1.27206
-8.72296 28.1297 -1.27221
-8.17157 28.0996 -1.27237
-7.62641 28.0302 -1.27252
-7.17539 28.0796 -1.27265
-6.59709 28.1965 -1.27282
-6.02958 28.2268 -1.27298
-5.49697 28.1097 -1.27313
-4.96953 28.1276 -1.27328
-4.51031 28.0444 -1.27341
-3.83373 28.1253 -1.27361
-3.37342 28.084 -1.27374
-2.86069 27.9565 -1.27427
-2.36375 28.1243 -1.2824
-1.60378 28.0411 -1.43186
-16.8065 28.668 -1.52348
-16.4311 28.6605 -1.34188
-16.0276 28.5279 -1.28454
-15.3754 28.6938 -1.27172
-15.0615 28.4839 -1.2713
-14.5692 28.6599 -1.27075
-13.9346 28.6547 -1.27088
-13.4255 28.6416 -1.271
-12.8704 28.6777 -1.27114
-12.2824 28.6334 -1.27129
-11.8023 28.7118 -1.2714
-11.3012 28.6747 -1.27153
-10.7502 28.6916 -1.27166
-10.1647 28.6413 -1.27182
-9.56435 28.5641 -1.27198
-9.15445 28.6222 -1.2721
-8.72966 28.6096 -1.27222
-8.10324 28.6007 -1.27239
-7.66815 28.6281 -1.27252
-7.09102 28.578 -1.27268
-6.44762 28.6833 -1.27287
-6.03255 28.6836 -1.27299
-5.49431 28.6622 -1.27314
-5.0679 28.4793 -1.27326
-4.45168 28.4634 -1.27344
-3.9831 28.7737 -1.27358
-3.43394 28.6035 -1.27373
-2.92697 28.443 -1.27393
-2.46519 28.807 -1.27417
-1.84204 28.5951 -1.30555
-1.34363 28.5832 -1.53421
-16.5384 29.1858 -1.42693
-16.0168 29.0676 -1.28927
-15.4987 29.1847 -1.27536
-14.9875 29.0833 -1.27092
-14.4813 29.1867 -1.27075
-13.9616 29.2027 -1.27087
-13.3586 29.1375 -1.27102
-12.8431 29.0092 -1.27115
-12.4072 29.1746 -1.27125
-11.864 29.1818 -1.27139
-11.3857 29.1979 -1.27151
-10.9375 29.1081 -1.27162
-10.2216 29.1777 -1.27181
-9.71932 29.1774 -1.27194
-9.24304 29.1764 -1.27208
-8.75431 29.0521 -1.27222
-8.20911 29.1137 -1.27237
-7.68446 29.2394 -1.27252
-7.05527 29.2313 -1.2727
-6.59369 29.0426 -1.27283
-6.06584 29.2697 -1.27299
-5.46099 29.0846 -1.27316
-4.88932 29.195 -1.27332
-4.50882 29.1179 -1.27343
-3.87412 29.1815 -1.27361
-3.35518 29.1976 -1.27376
-2.81944 29.0434 -1.2739
-2.40723 29.2962 -1.27398
-1.9683 29.0558 -1.28822
-1.3544 29.382 -1.54483
-16.3839 29.7384 -1.45392
-15.972 29.6833 -1.35283
-15.4988 29.6568 -1.30063
-14.8296 29.5893 -1.27137
-14.492 29.7668 -1.27099
-13.8615 29.6085 -1.2709
-13.4131 29.6509 -1.27101
-12.9389 29.6556 -1.27112
-12.2985 29.7005 -1.27128
-11.7964 29.8675 -1.2714
-11.3266 29.7538 -1.27152
-10.7906 29.5569 -1.27166
-10.4008 29.8266 -1.27176
-9.81375 29.7248 -1.27192
-9.22802 29.717 -1.27209
-8.61025 29.7121 -1.27227
-8.12915 29.6435 -1.2724
-7.67325 29.7066 -1.27253
-7.06259 29.711 -1.27271
-6.57887 29.5877 -1.27285
-6.05962 29.6137 -1.27299
-5.55608 29.5245 -1.27314
-5.01329 29.7071 -1.2733
-4.35998 29.704 -1.27348
-3.82339 29.7402 -1.27364
-3.40789 29.6905 -1.27375
-2.9083 29.5541 -1.27388
-2.29824 29.7326 -1.27512
-1.94183 29.5938 -1.29888
-16.2903 30.1997 -1.4944
-15.9565 30.1769 -1.39923
-15.2703 30.1525 -1.29631
-14.947 30.0916 -1.27759
-14.363 30.2306 -1.27106
-13.9241 30.0905 -1.27088
-13.3019 30.2063 -1.27103
-12.8121 29.9924 -1.27115
-12.3528 30.143 -1.27127
-11.6871 30.2874 -1.27143
-11.2196 30.1793 -1.27155
-10.7588 30.1206 -1.27167
-10.1951 30.294 -1.27183
-9.67025 30.1228 -1.27197
-9.14623 30.2787 -1.27212
-8.6749 30.1834 -1.27226
-8.17262 30.227 -1.2724
-7.53067 30.2728 -1.27258
-7.00045 30.141 -1.27273
-6.50926 30.1385 -1.27287
-6.02951 30.1295 -1.27301
-5.59134 30.1253 -1.27314
-5.06188 30.2624 -1.27329
-4.43808 30.2114 -1.27347
-3.83838 30.1927 -1.27364
-3.49701 30.106 -1.27373
-2.94435 30.1765 -1.27387
-2.5331 30.0362 -1.27396
-1.95118 30.2642 -1.29016
-1.40302 30.1844 -1.48882
-16.378 30.7248 -1.5175
-15.9909 30.5954 -1.40879
-15.6371 30.6428 -1.33225
-14.9778 30.7047 -1.2792
-14.4425 30.6946 -1.27136
-13.8988 30.7143 -1.27089
-13.4206 30.7448 -1.271
-12.957 30.6659 -1.27112
-12.3927 30.7788 -1.27126
-11.9422 30.6211 -1.27137
-11.2984 30.6687 -1.27153
-10.7048 30.6346 -1.27169
-10.2232 30.6834 -1.27182
-9.78977 30.6562 -1.27194
-9.37075 30.8025 -1.27207
-8.67076 30.652 -1.27226
-8.08573 30.788 -1.27243
-7.59059 30.7527 -1.27257
-7.02135 30.6496 -1.27274
-6.69127 30.8091 -1.27283
-6.12666 30.6631 -1.27299
-5.4756 30.7438 -1.27318
-5.11282 30.6862 -1.27328
-4.54352 30.7743 -1.27345
-4.01984 30.6435 -1.27359
-3.45582 30.6506 -1.27374
-2.72613 30.5527 -1.27392
-2.45584 30.6914 -1.27397
-1.79719 30.7345 -1.2999
-1.27208 30.9343 -1.52624
-16.4558 31.1806 -1.46863
-15.9636 31.0807 -1.34979
-15.4642 31.1262 -1.28761
-15.041 31.2865 -1.27165
-14.4204 31.2507 -1.27079
-14.05 31.0296 -1.27085
-13.4752 31.2539 -1.27099
-12.8561 31.2274 -1.27114
-12.2225 31.2736 -1.2713
-11.773 31.1649 -1.27141
-11.2698 31.2109 -1.27154
-10.8336 31.269 -1.27166
-10.1555 31.3238 -1.27185
-9.66007 31.278 -1.27199
-9.08875 31.2294 -1.27215
-8.5682 31.2811 -1.2723
-8.16046 31.3066 -1.27242
-7.6202 31.1587 -1.27257
-7.08461 31.2313 -1.27273
-6.54953 31.2196 -1.27288
-5.93258 31.2651 -1.27306
-5.26749 31.1452 -1.27325
-4.88766 31.3501 -1.27336
-4.42641 31.1085 -1.27348
-3.99259 31.2692 -1.27361
-3.36953 31.2467 -1.27377
-2.84309 31.1938 -1.2739
-2.31824 31.1837 -1.27453
-1.81479 31.3402 -1.29099
-1.36767 31.1713 -1.42675
-16.5486 31.8328 -1.39469
-16.1005 31.8795 -1.30448
-15.4885 31.8045 -1.27477
-14.8676 31.6985 -1.27065
-14.3287 31.7517 -1.27078
-13.8967 31.5114 -1.27089
-13.4855 31.7618 -1.27099
-12.8977 31.7174 -1.27113
-12.3748 31.8759 -1.27126
-11.7122 31.6414 -1.27143
-11.2451 31.8985 -1.27155
-10.8506 31.9025 -1.27166
-10.3406 31.7406 -1.2718
-9.63746 31.8525 -1.27201
-9.28483 31.575 -1.2721
-8.73864 31.8244 -1.27226
-8.08885 31.8726 -1.27245
-7.73132 31.643 -1.27255
-7.22194 31.6999 -1.27269
-6.64668 31.7424 -1.27286
-6.11154 31.8432 -1.27301
-5.54926 31.725 -1.27317
-5.10409 31.6819 -1.2733
-4.44715 31.775 -1.27349
-3.88823 31.7832 -1.27365
-3.44935 31.7873 -1.27377
-2.89993 31.7525 -1.2739
-2.22988 31.8195 -1.27474
-1.95598 31.9673 -1.28642
-1.43085 31.7545 -1.40511
-16.8335 32.2751 -1.52158
-16.4978 32.4486 -1.33649
-15.9673 32.4266 -1.27937
-15.4682 32.3303 -1.27077
-14.9073 32.1827 -1.27064
-14.3061 32.2674 -1.27079
-13.8305 32.2848 -1.2709
-13.4001 32.2456 -1.27101
-12.7871 32.2134 -1.27116
-12.1221 32.2511 -1.27133
-11.7688 32.1704 -1.27142
-11.2963 32.1858 -1.27154
-10.6765 32.3323 -1.27172
-10.258 32.2835 -1.27184
-9.80505 32.3768 -1.27197
-9.16022 32.3782 -1.27215
-8.74538 32.3141 -1.27227
-8.14475 32.3521 -1.27244
-7.66484 32.1769 -1.27258
-7.17816 32.1756 -1.27271
-6.5579 32.265 -1.27289
-6.10435 32.3184 -1.27302
-5.41582 32.2226 -1.27322
-4.91968 32.4446 -1.27337
-4.51811 32.1924 -1.27348
-3.86852 32.2787 -1.27366
-3.37816 32.3543 -1.2738
-2.89157 32.2342 -1.27392
-2.31316 32.2831 -1.27576
-1.64704 32.2063 -1.33815
-1.37136 32.1576 -1.46149
-16.8176 32.8171 -1.49639
-16.441 32.8742 -1.30988
-15.937 32.8229 -1.27262
-15.4158 32.8771 -1.27051
-14.9689 32.7788 -1.27062
-14.4993 32.7977 -1.27074
-14.0095 32.8555 -1.27086
-13.3745 32.7884 -1.27101
-12.8061 32.7571 -1.27115
-12.2677 32.721 -1.27129
-11.6996 32.6235 -1.27144
-11.3004 32.7955 -1.27155
-10.6273 32.7935 -1.27174
-10.212 32.8871 -1.27186
-9.86904 32.7536 -1.27195
-9.40217 32.912 -1.27209
-8.72623 32.7857 -1.27228
-8.09963 32.7995 -1.27246
-7.52393 32.7463 -1.27262
-7.10425 32.7473 -1.27274
-6.55367 32.862 -1.2729
-5.8904 32.7553 -1.27309
-5.55049 32.8469 -1.27319
-4.91888 32.9307 -1.27337
-4.49904 32.7615 -1.27349
-3.94322 32.8311 -1.27365
-3.45428 32.8618 -1.27379
-2.82354 32.7112 -1.27394
-2.41098 32.8535 -1.27594
-1.85865 32.8382 -1.34191
-1.48808 32.6165 -1.44223
-16.8393 33.2836 -1.50426
-16.4755 33.4172 -1.31219
-16.107 33.3675 -1.27338
-15.3985 33.4085 -1.27052
-14.823 33.2973 -1.27066
-14.4127 33.3608 -1.27076
-13.8361 33.348 -1.2709
-13.3526 33.3419 -1.27102
-12.8477 33.1907 -1.27115
-12.422 33.3757 -1.27126
-11.8064 33.317 -1.27142
-11.2258 33.3745 -1.27158
-10.7879 33.3377 -1.2717
-10.3573 33.2738 -1.27182
-9.70356 33.4676 -1.27201
-9.23215 33.3349 -1.27214
-8.69678 33.2681 -1.2723
-8.15746 33.2629 -1.27245
-7.66006 33.3252 -1.27259
-7.25931 33.5667 -1.27271
-6.54368 33.4183 -1.27292
-5.85699 33.4005 -1.27311
-5.41183 33.4308 -1.27324
-4.91218 33.444 -1.27338
-4.49887 33.3156 -1.2735
-4.0013 33.3176 -1.27364
-3.48649 33.2633 -1.27378
-2.90416 33.2308 -1.27434
-2.20892 33.3903 -1.29235
-1.75838 33.3858 -1.39569
-16.8049 33.7588 -1.48627
-16.5191 34.0439 -1.37555
-15.9045 33.8702 -1.27168
-15.6295 33.814 -1.27046
-14.9915 33.9294 -1.27062
-14.5609 33.7917 -1.27072
-13.9981 33.8113 -1.27086
-13.3212 33.8936 -1.27103
-12.8252 33.7907 -1.27115
-12.4216 34.0531 -1.27126
-11.9151 33.9523 -1.27139
-11.345 33.9252 -1.27155
-10.7304 33.8805 -1.27173
-10.1689 33.7261 -1.27188
-9.77242 33.9648 -1.272
-9.11516 33.8497 -1.27219
-8.5553 33.653 -1.27234
-8.20155 33.8937 -1.27245
-7.55755 34.0192 -1.27263
-7.02499 33.7964 -1.27278
-6.77804 34.0206 -1.27286
-6.17792 33.9253 -1.27303
-5.455 33.9218 -1.27323
-4.89692 33.7604 -1.27339
-4.38676 33.7128 -1.27354
-3.8907 33.7554 -1.27368
-3.37989 33.807 -1.27381
-3.02732 33.8588 -1.27407
-2.42316 33.8661 -1.28057
-1.88074 33.7285 -1.35619
-1.49953 33.8595 -1.5368
-16.5096 34.4804 -1.38159
-15.982 34.4444 -1.28006
-15.493 34.3076 -1.27049
-14.9707 34.3219 -1.27062
-14.3492 34.4309 -1.27077
-13.9799 34.3348 -1.27087
-13.3357 34.4747 -1.27103
-12.831 34.3878 -1.27115
-12.1442 34.48 -1.27134
-11.3376 34.3549 -1.27156
-10.795 34.3558 -1.27171
-10.2266 34.4075 -1.27188
-9.60372 34.4846 -1.27206
-9.07979 34.3685 -1.2722
-8.68516 34.1379 -1.27231
-8.17324 34.4477 -1.27246
-7.68847 34.4481 -1.2726
-7.12255 34.4022 -1.27277
-6.60569 34.35 -1.27291
-6.01386 34.3201 -1.27308
-5.57148 34.4161 -1.27321
-4.88038 34.3451 -1.27341
-4.4527 34.3938 -1.27353
-3.98411 34.3664 -1.27366
-3.45068 34.4352 -1.27379
-2.86861 34.3062 -1.274
-2.3519 34.326 -1.2757
-2.03673 34.292 -1.2954
-1.4177 34.3678 -1.49493
-16.6106 34.914 -1.44183
-16.029 34.9754 -1.2955
-15.4906 34.9818 -1.27242
-14.9699 34.8731 -1.27067
-14.4407 34.8588 -1.27075
-13.9454 35.0735 -1.27087
-13.3742 34.8802 -1.27102
-12.6656 34.7532 -1.2712
-12.3614 35.006 -1.27128
-11.7451 34.9914 -1.27145
-11.1658 34.8145 -1.27162
-10.8195 34.8183 -1.27171
-10.3128 34.8025 -1.27186
-9.63353 34.8138 -1.27205
-9.14247 34.8963 -1.27219
-8.67282 34.954 -1.27233
-8.17084 34.849 -1.27247
-7.64418 35.0317 -1.27263
-7.04005 34.8832 -1.2728
-6.45589 34.9499 -1.27296
-5.93446 34.9669 -1.27311
-5.53032 34.9397 -1.27323
-5.04015 34.9975 -1.27337
-4.48017 34.9711 -1.27353
-4.02841 34.9153 -1.27365
-3.40071 35.0006 -1.2738
-2.87704 34.871 -1.27399
-2.43445 34.8858 -1.2748
-1.79912 34.8572 -1.30674
-1.48472 34.9989 -1.41784
-16.5014 35.4608 -1.42428
-15.9805 35.5313 -1.29467
-15.4084 35.4393 -1.27107
-14.9061 35.4661 -1.27064
-14.3595 35.3495 -1.27077
-13.8657 35.6749 -1.27089
-13.3981 35.4521 -1.27101
-12.9138 35.3715 -1.27114
-12.3968 35.4845 -1.27128
-11.8329 35.6129 -1.27144
-11.3328 35.4188 -1.27158
-10.7116 35.4057 -1.27175
-10.3169 35.2687 -1.27187
-9.63694 35.5287 -1.27206
-9.06238 35.3649 -1.27222
-8.47601 35.495 -1.2724
-8.08119 35.3956 -1.27251
-7.61922 35.3771 -1.27264
-7.18789 35.4317 -1.27276
-6.58684 35.5662 -1.27294
-5.93957 35.5919 -1.27312
-5.57658 35.6018 -1.27323
-5.22888 35.5789 -1.27332
-4.55583 35.4767 -1.27351
-3.89519 35.4606 -1.2737
-3.41334 35.5365 -1.27395
-2.93671 35.5195 -1.27709
-2.37571 35.442 -1.28607
-1.92257 35.3449 -1.32644
-1.46392 35.5536 -1.55431
-16.5194 35.9442 -1.43652
-16.0051 36.05 -1.29813
-15.4882 35.9628 -1.27412
-14.948 35.8518 -1.27063
-14.3848 35.9763 -1.27077
-13.8417 36.133 -1.2709
-13.491 36.1074 -1.27099
-12.8188 35.8867 -1.27116
-12.4011 35.9163 -1.27128
-11.7193 36.095 -1.27148
-11.0727 35.8388 -1.27166
-10.8098 36.0049 -1.27174
-10.2559 35.8747 -1.27189
-9.87705 36.2086 -1.272
-9.19358 36.0162 -1.2722
-8.52389 35.9843 -1.27239
-8.22171 36.0133 -1.27248
-7.63578 35.9573 -1.27264
-7.09512 35.9747 -1.2728
-6.55562 36.0188 -1.27295
-6.08625 35.9668 -1.27309
-5.61625 36.0508 -1.27322
-5.02993 36.0919 -1.27339
-4.36122 35.969 -1.27358
-4.01802 36.0763 -1.2737
-3.57889 35.9058 -1.27403
-2.91856 36.0508 -1.28631
-2.33507 36.0855 -1.32834
-1.8551 35.9578 -1.42206
-16.5328 36.383 -1.453
-16.1505 36.4574 -1.33488
-15.4148 36.507 -1.27727
-14.9018 36.4468 -1.2708
-14.4952 36.632 -1.27074
-13.9844 36.612 -1.27087
-13.2255 36.6102 -1.27106
-12.9886 36.412 -1.27112
-12.5255 36.4901 -1.27125
-11.9489 36.4424 -1.27142
-11.3514 36.4858 -1.27159
-10.9502 36.5112 -1.2717
-10.2886 36.5639 -1.27189
-9.68065 36.4289 -1.27206
-9.13689 36.4911 -1.27222
-8.65602 36.4725 -1.27236
-8.17809 36.4649 -1.2725
-7.67739 36.5086 -1.27264
-7.06543 36.526 -1.27281
-6.56354 36.5632 -1.27296
-6.11037 36.5364 -1.27309
-5.40023 36.494 -1.27329
-4.91698 36.6154 -1.27343
-4.50336 36.5467 -1.27355
-3.98646 36.4466 -1.27374
-3.39429 36.4274 -1.27625
-2.90476 36.4785 -1.28908
-2.17101 36.3984 -1.36081
-1.72987 36.5891 -1.48165
-1.57275 36.4425 -1.56697
-16.4981 36.9552 -1.46831
-15.9634 37.0523 -1.32042
-15.5347 37.0797 -1.28039
-14.9811 36.9945 -1.27091
-14.2991 36.9884 -1.27079
-13.826 37.1637 -1.27091
-13.4744 37.0347 -1.271
