ply
format ascii 1.0
comment Generated by Slim Ghodhbane
element vertex 1892
property double x
property double y
property double z
end_header
-10.5611 0.811692 -12.1859
10.5611 0.816758 -12.1859
-9.99016 1.7568 -12.1859
9.9932 1.7568 -12.1859
-8.9363 2.3581 -12.1859
8.9363 2.35547 -12.1859
-7.31152 3.15944 -12.1859
7.31152 3.18682 -12.1859
-6.90805 3.40207 -12.1859
6.94829 3.40207 -12.1859
-5.68674 4.19881 -12.1859
5.68673 4.19618 -12.1859
-4.06195 4.73528 -12.1859
4.06195 4.73732 -12.1859
-3.11004 5.04733 -12.1859
-2.43717 5.04733 -12.3864
2.43717 5.04733 -12.3634
3.05998 5.04733 -12.1859
-2.43717 5.2481 -12.1859
-0.812391 5.40314 -12.1859
0.812389 5.40222 -12.1859
2.43717 5.22503 -12.1859
-5.68674 25.8705 -12.1859
-4.06195 25.8252 -12.1859
-2.43717 25.8252 -12.1859
-0.812391 25.8252 -12.1859
0.812389 25.8252 -12.1859
2.43717 25.8252 -12.1859
4.06195 25.8252 -12.1859
5.68673 25.9137 -12.1859
-5.76939 26.4358 -12.2597
-4.06195 26.4358 -12.3503
-2.43717 26.4358 -12.3503
-0.812391 26.4358 -12.3503
0.812389 26.4358 -12.3503
2.43717 26.4358 -12.3503
4.06195 26.4358 -12.3503
5.76074 26.4358 -12.2521
-5.95434 28.0811 -12.1859
5.9512 28.0811 -12.1859
-6.005 29.7263 -12.1859
6.00037 29.7263 -12.1859
-5.98102 31.3716 -12.1859
5.97484 31.3716 -12.1859
-5.79298 33.0169 -12.2875
5.78303 33.0169 -12.2782
-5.68674 33.9056 -12.1859
-4.06195 33.9975 -12.1859
-2.43717 33.9975 -12.1859
-0.812391 33.9975 -12.1859
0.812389 33.9975 -12.1859
2.43717 33.9975 -12.1859
4.06195 33.9975 -12.1859
5.68673 33.8609 -12.1859
-4.06195 34.6621 -12.0015
-2.43717 34.6621 -12.0015
-0.812391 34.6621 -12.0015
0.812389 34.6621 -12.0015
2.43717 34.6621 -12.0015
4.06195 34.6621 -12.0015
-10.5611 1.7568 -11.7959
10.5611 1.7568 -11.7982
-7.31152 3.40207 -11.904
7.31152 3.40207 -11.9348
-4.06195 5.04733 -11.8738
4.06195 5.04733 -11.8757
-4.06195 24.7905 -11.8468
-2.43717 24.7905 -11.8468
-0.812391 24.7905 -11.8468
0.812389 24.7905 -11.8468
2.43717 24.7905 -11.8468
4.06195 24.7905 -11.8468
-5.68674 34.6621 -11.6258
5.68673 34.6621 -11.6203
-12.1859 0.111532 -11.2318
12.1859 0.111532 -11.2545
-5.68674 24.7905 -11.4208
5.68673 24.7905 -11.4149
-8.9363 3.40207 -10.9544
8.9363 3.40207 -10.9513
-5.68674 5.04733 -11.185
5.68673 5.04733 -11.1819
-0.812391 6.6926 -10.8138
0.812389 6.6926 -10.8123
-5.68674 36.3074 -10.9513
-4.06195 36.3074 -11.1278
-2.43717 36.3074 -11.1278
-0.812391 36.3074 -11.1278
0.812389 36.3074 -11.1278
2.43717 36.3074 -11.1278
4.06195 36.3074 -11.1278
5.68673 36.3074 -10.938
-12.1859 -0.0512963 -10.5611
-10.5611 -0.0512963 -10.5611
-8.9363 -0.0512963 -10.5611
-7.31152 -0.0512963 -10.5611
-5.68674 -0.0512963 -10.5611
-4.06195 -0.0512963 -10.5611
-2.43717 -0.0512963 -10.5611
-0.812391 -0.0512963 -10.5611
0.812389 -0.0512963 -10.5611
2.43717 -0.0512963 -10.5611
4.06195 -0.0512963 -10.5611
5.68673 -0.0512963 -10.5611
7.31152 -0.0512963 -10.5611
8.9363 -0.0512963 -10.5611
10.5611 -0.0512963 -10.5611
12.1859 -0.0512963 -10.5611
-12.5364 0.111532 -10.5611
12.5336 0.111532 -10.5611
-12.1859 0.819239 -10.5611
12.1859 0.812671 -10.5611
-11.8015 1.7568 -10.5611
11.7951 1.7568 -10.5611
-10.5611 2.7875 -10.5611
10.5611 2.78205 -10.5611
-9.50747 3.40207 -10.5611
9.50121 3.40207 -10.5611
-8.9363 3.73552 -10.5611
8.9363 3.73289 -10.5611
-7.31152 4.65587 -10.5611
7.31152 4.65325 -10.5611
-6.62044 5.04733 -10.5611
6.6158 5.04733 -10.5611
-5.68674 5.57623 -10.5611
5.68673 5.5736 -10.5611
-4.06195 6.36763 -10.5611
4.06195 6.36919 -10.5611
-2.43717 6.50123 -10.5611
-1.65926 6.6926 -10.5611
1.67974 6.6926 -10.5611
2.43717 6.51056 -10.5611
-0.812391 6.86516 -10.5611
0.812389 6.86414 -10.5611
-4.06195 22.7986 -10.5611
-2.43717 22.7986 -10.5611
-0.812391 22.7986 -10.5611
0.812389 22.7986 -10.5611
2.43717 22.7986 -10.5611
4.06195 22.7986 -10.5611
-5.74509 23.05 -10.6247
-4.06195 23.1453 -10.7958
-2.43717 23.1453 -10.7958
-0.812391 23.1453 -10.7958
0.812389 23.1453 -10.7958
2.43717 23.1453 -10.7958
4.06195 23.1453 -10.7958
5.74382 23.0516 -10.6235
-6.005 24.7905 -10.5611
6.00037 24.7905 -10.5611
-6.005 26.4358 -10.5611
6.00037 26.4358 -10.5611
-6.005 28.0811 -10.5611
6.00037 28.0811 -10.5611
-5.9921 29.7263 -10.5611
5.99749 29.7263 -10.5611
-6.005 31.3716 -10.5611
6.00037 31.3716 -10.5611
-6.005 33.0169 -10.5611
6.00037 33.0169 -10.5611
-6.005 34.6621 -10.5611
6.00037 34.6621 -10.5611
-5.97141 36.3074 -10.5611
5.96005 36.3074 -10.5611
-5.68674 36.9421 -10.5611
-4.06195 37.1556 -10.5611
-2.43717 37.1556 -10.5611
-0.812391 37.1556 -10.5611
0.812389 37.1556 -10.5611
2.43717 37.1556 -10.5611
4.06195 37.1556 -10.5611
5.68673 36.9244 -10.5611
-7.31152 5.04733 -10.0993
7.31152 5.04733 -10.0962
-2.43717 6.6926 -10.2283
2.43717 6.6926 -10.243
-5.68674 28.0811 -10.0384
5.68673 28.0811 -10.0436
-5.68674 29.7263 -10.1805
5.68673 29.7263 -10.1731
-5.68674 31.3716 -10.09
5.68673 31.3716 -10.0949
-4.06195 37.9527 -10.0285
-2.43717 37.9527 -10.0285
-0.812391 37.9527 -10.0285
0.812389 37.9527 -10.0285
2.43717 37.9527 -10.0285
4.06195 37.9527 -10.0285
-12.1859 1.7568 -9.99669
12.1859 1.7568 -9.98823
-4.06195 6.6926 -9.98564
4.06195 6.6926 -9.98743
-4.06195 21.5 -9.65653
-2.43717 21.5 -9.65653
-0.812391 21.5 -9.65653
0.812389 21.5 -9.65653
2.43717 21.5 -9.65653
4.06195 21.5 -9.65653
-5.68674 26.4358 -9.77425
5.68673 26.4358 -9.7802
-4.06195 28.0811 -9.62201
-2.43717 28.0811 -9.62201
-0.812391 28.0811 -9.62201
0.812389 28.0811 -9.62201
2.43717 28.0811 -9.62201
4.06195 28.0811 -9.622
-4.06195 29.7263 -9.94594
-2.43717 29.7263 -9.94594
-0.812391 29.7263 -9.94594
0.812389 29.7263 -9.94594
2.43717 29.7263 -9.94594
4.06195 29.7263 -9.94594
-4.06195 31.3716 -9.73275
-2.43717 31.3716 -9.73275
-0.812391 31.3716 -9.73275
0.812389 31.3716 -9.73275
2.43717 31.3716 -9.73275
4.06195 31.3716 -9.73275
-5.68674 33.0169 -9.89598
5.68673 33.0169 -9.90173
-5.68674 37.9527 -9.61655
5.68673 37.9527 -9.61076
-10.5611 3.40207 -9.50849
10.5611 3.40207 -9.49903
-8.9363 5.04733 -9.20216
-5.68674 6.6926 -9.21643
-5.68674 21.5 -9.41316
5.68673 21.5 -9.40962
-4.06195 26.4358 -9.29095
-2.43717 26.4358 -9.29095
-0.812391 26.4358 -9.29095
0.812389 26.4358 -9.29095
2.43717 26.4358 -9.29095
4.06195 26.4358 -9.29095
-4.06195 33.0169 -9.40548
-2.43717 33.0169 -9.40547
-0.812391 33.0169 -9.40548
0.812389 33.0169 -9.40548
2.43717 33.0169 -9.40548
4.06195 33.0169 -9.40548
-12.1859 -0.0512965 -8.9363
-10.5611 -0.0512965 -8.9363
-8.9363 -0.0512965 -8.9363
-7.31152 -0.0512965 -8.9363
-5.68674 -0.0512965 -8.9363
-4.06195 -0.0512965 -8.9363
-2.43717 -0.0512965 -8.9363
-0.812391 -0.0512965 -8.9363
0.812389 -0.0512965 -8.9363
2.43717 -0.0512965 -8.9363
4.06195 -0.0512965 -8.9363
5.68673 -0.0512965 -8.9363
7.31152 -0.0512965 -8.9363
8.9363 -0.0512965 -8.9363
10.5611 -0.0512965 -8.9363
12.1859 -0.0512965 -8.9363
13.8106 -0.0011666 -8.9363
-13.8461 0.15051 -8.99349
13.863 0.205566 -9.01981
-12.8944 1.7568 -8.9363
12.8897 1.7568 -8.9363
-12.1859 2.35745 -8.9363
12.1859 2.35351 -8.9363
-10.9551 3.40207 -8.9363
10.949 3.40207 -8.9363
-10.5611 3.73611 -8.9363
10.5611 3.73093 -8.9363
-9.20205 5.04733 -8.9363
9.05123 5.04733 -9.05138
-8.9363 5.27333 -8.9363
8.9363 5.2419 -8.9363
-7.31152 6.03328 -8.9363
7.31152 6.03065 -8.9363
-6.11042 6.6926 -8.9363
5.68673 6.6926 -9.19332
6.07844 6.6926 -8.9363
-5.68674 6.85897 -8.9363
-4.06195 7.14765 -8.9363
4.06195 7.14653 -8.9363
5.68673 6.8444 -8.9363
-2.43717 7.33636 -8.9363
-0.812391 7.47023 -8.9363
0.812389 7.46985 -8.9363
2.43717 7.33598 -8.9363
-4.06195 20.7119 -8.9363
-2.43717 20.7119 -8.9363
-0.812391 20.7119 -8.9363
0.812389 20.7119 -8.9363
2.43717 20.7119 -8.9363
4.06195 20.7119 -8.9363
-5.68674 20.9666 -8.9363
5.68673 20.9704 -8.9363
-5.99978 21.5 -8.9363
5.99624 21.5 -8.9363
-6.005 23.1453 -8.9363
6.00037 23.1453 -8.9363
-5.98108 24.7905 -8.9363
5.97947 24.7905 -8.9363
-5.68674 25.5478 -8.9363
5.68673 25.5465 -8.9363
-4.06195 25.7823 -8.9363
-2.43717 25.7823 -8.9363
-0.812391 25.7823 -8.9363
0.812389 25.7823 -8.9363
2.43717 25.7823 -8.9363
4.06195 25.7823 -8.9363
-5.68674 34.2311 -8.93629
-4.06195 34.1132 -8.93629
-2.43717 34.1132 -8.93629
-0.812391 34.1132 -8.93629
0.812389 34.1132 -8.93629
2.43717 34.1132 -8.93629
4.06195 34.1132 -8.93629
5.68673 34.2049 -8.93629
-5.86694 34.6621 -8.93629
5.87968 34.6621 -8.93629
-6.005 36.3074 -8.93629
6.00037 36.3074 -8.93629
-6.005 37.9527 -8.93629
6.00037 37.9527 -8.93629
-5.68674 38.9336 -8.93629
5.68673 38.9278 -8.93629
-4.06195 39.2819 -8.93629
-2.43717 39.2819 -8.93629
-0.812391 39.2819 -8.93629
0.812389 39.2819 -8.93629
2.43717 39.2819 -8.93629
4.06195 39.2819 -8.93629
-5.68674 24.7905 -8.51806
5.68673 24.7905 -8.51903
-5.68674 34.6621 -8.73339
-4.06195 34.6621 -8.66411
-2.43717 34.6621 -8.66411
-0.812391 34.6621 -8.66411
0.812389 34.6621 -8.66411
2.43717 34.6621 -8.66411
4.06195 34.6621 -8.66411
5.68673 34.6621 -8.71863
-4.06195 39.5979 -8.5591
-2.43717 39.5979 -8.5591
-0.812391 39.5979 -8.5591
0.812389 39.5979 -8.5591
2.43717 39.5979 -8.5591
4.06195 39.5979 -8.5591
-4.06195 24.7905 -8.31645
-2.43717 24.7905 -8.31645
-0.812391 24.7905 -8.31645
0.812389 24.7905 -8.31645
2.43717 24.7905 -8.31645
4.06195 24.7905 -8.31645
-5.68674 36.3074 -8.01999
5.68673 36.3074 -8.02583
-5.68674 39.5979 -8.28024
5.68673 39.5979 -8.27446
-13.8106 1.7568 -7.72665
13.8106 1.7568 -7.68214
-7.31152 6.6926 -7.8843
7.31152 6.6926 -7.87089
-5.68674 19.8547 -7.66269
-4.06195 19.8547 -7.77492
-2.43717 19.8547 -7.77495
-0.812391 19.8547 -7.77495
0.812389 19.8547 -7.77495
2.43717 19.8547 -7.77495
4.06195 19.8547 -7.77492
5.68673 19.8547 -7.66361
-4.06195 36.3074 -7.60461
-2.43717 36.3074 -7.60461
-0.812391 36.3074 -7.60461
0.812389 36.3074 -7.60461
2.43717 36.3074 -7.60461
4.06195 36.3074 -7.60461
-13.8106 -0.0512967 -7.31152
-12.1859 -0.0512967 -7.31152
-10.5611 -0.0512967 -7.31152
-8.9363 -0.0512967 -7.31152
-7.31152 -0.0512967 -7.31152
-5.68674 -0.0512967 -7.31152
-4.06195 -0.0512967 -7.31152
-2.43717 -0.0512967 -7.31152
-0.812391 -0.0512967 -7.31152
0.812389 -0.0512967 -7.31152
2.43717 -0.0512967 -7.31152
4.06195 -0.0512967 -7.31152
5.68673 -0.0512967 -7.31152
7.31152 -0.0512967 -7.31152
8.9363 -0.0512967 -7.31152
10.5611 -0.0512967 -7.31152
12.1859 -0.0512967 -7.31152
13.8106 -0.0512967 -7.31152
-14.4946 0.111531 -7.31152
14.5274 0.111531 -7.31152
-14.0978 1.7568 -7.31152
13.8106 1.97541 -7.31152
14.0645 1.7568 -7.31152
-13.8106 2.00483 -7.31152
-12.1859 3.15679 -7.31152
12.1859 3.18497 -7.31152
-11.901 3.40207 -7.31152
11.9327 3.40207 -7.31152
-10.5611 4.65522 -7.31152
10.5611 4.65129 -7.31152
-10.0985 5.04733 -7.31152
10.0939 5.04733 -7.31152
-8.9363 6.03263 -7.31152
8.9363 6.0287 -7.31152
-7.88394 6.6926 -7.31152
7.86981 6.6926 -7.31152
-7.31152 6.96186 -7.31152
7.31152 6.95429 -7.31152
-5.68674 7.337 -7.31152
5.68673 7.33591 -7.31152
-4.06195 7.71823 -7.31152
4.06195 7.71714 -7.31152
-2.43717 8.00937 -7.31152
-0.812391 8.11373 -7.31152
0.812389 8.11271 -7.31152
2.43717 8.00899 -7.31152
-4.06195 19.5441 -7.31151
-2.43717 19.5441 -7.31151
-0.812391 19.5441 -7.31151
0.812389 19.5441 -7.31151
2.43717 19.5441 -7.31151
4.06195 19.5441 -7.31151
-5.78474 19.7407 -7.31151
5.78472 19.7404 -7.31151
-6.005 21.5 -7.31151
6.00037 21.5 -7.31151
-5.85887 23.1453 -7.31151
5.85238 23.1453 -7.31151
-5.68674 23.4033 -7.31151
-4.06195 23.4181 -7.31151
-2.43717 23.4181 -7.31151
-0.812391 23.4181 -7.31151
0.812389 23.4181 -7.31151
2.43717 23.4181 -7.31151
4.06195 23.4181 -7.31151
5.68673 23.3949 -7.31151
-4.06195 36.6739 -7.31151
-2.43717 36.6739 -7.31151
-0.812391 36.6739 -7.31151
0.812389 36.6739 -7.31151
2.43717 36.6739 -7.31151
4.06195 36.6739 -7.31151
-5.68674 37.0248 -7.31151
5.68673 37.0307 -7.31151
-6.005 37.9527 -7.31151
6.00037 37.9527 -7.31151
-6.005 39.5979 -7.31151
6.00037 39.5979 -7.31151
-5.68674 40.1374 -7.31151
5.68673 40.1321 -7.31151
-4.06195 40.4569 -7.31151
-2.43717 40.4569 -7.31151
-0.812391 40.4569 -7.31151
0.812389 40.4569 -7.31151
2.43717 40.4569 -7.31151
4.06195 40.4569 -7.31151
-12.1859 3.40207 -6.90405
12.1859 3.40207 -6.94518
-5.68674 23.1453 -7.08256
-4.06195 23.1453 -7.06921
-2.43717 23.1453 -7.06921
-0.812391 23.1453 -7.06921
0.812389 23.1453 -7.06921
2.43717 23.1453 -7.06921
4.06195 23.1453 -7.06921
5.68673 23.1453 -7.0902
-10.5611 5.04733 -6.61929
10.5611 5.04733 -6.61234
-2.43717 8.33786 -6.4954
-0.812391 8.33786 -6.78586
0.812389 8.33786 -6.78379
2.43717 8.33786 -6.49407
-15.4354 0.111531 -6.30882
15.4354 0.111531 -6.37095
-8.9363 6.6926 -6.1125
8.9363 6.6926 -6.06334
-5.68674 37.9527 -6.2055
5.68673 37.9527 -6.20714
-5.68674 41.2432 -6.03405
-4.06195 41.2432 -6.13629
-2.43717 41.2432 -6.13629
-0.812391 41.2432 -6.13629
0.812389 41.2432 -6.13629
2.43717 41.2432 -6.13629
4.06195 41.2432 -6.13629
5.68673 41.2432 -6.00308
-15.4354 -0.0294854 -5.68674
-13.8106 -0.0512969 -5.68674
-12.1859 -0.0512969 -5.68674
-10.5611 -0.0512969 -5.68674
-8.9363 -0.0512969 -5.68674
-7.31152 -0.0512969 -5.68674
-5.68674 -0.0512969 -5.68674
-4.06195 -0.0512969 -5.68674
-2.43717 -0.0512969 -5.68674
-0.812391 -0.0512969 -5.68674
0.812389 -0.0512969 -5.68674
2.43717 -0.0512969 -5.68674
4.06195 -0.0512969 -5.68674
5.68673 -0.0512969 -5.68674
7.31152 -0.0512969 -5.68674
8.9363 -0.0512969 -5.68674
10.5611 -0.0512969 -5.68674
12.1859 -0.0512969 -5.68674
13.8106 -0.0512969 -5.68674
15.4354 -0.0397155 -5.68674
-15.6243 0.111531 -5.68674
15.6366 0.111531 -5.68674
-15.4354 0.545661 -5.68674
15.4354 0.568005 -5.68674
-14.8536 1.7568 -5.68674
14.8486 1.7568 -5.68674
-13.8106 2.78675 -5.68674
13.8106 2.78099 -5.68674
-13.1023 3.40207 -5.68674
13.0965 3.40207 -5.68674
-12.1859 4.19816 -5.68674
12.1859 4.19422 -5.68674
-11.1842 5.04733 -5.68674
11.1796 5.04733 -5.68674
-10.5611 5.57557 -5.68673
10.5611 5.57164 -5.68673
-9.21806 6.6926 -5.68673
9.18263 6.6926 -5.68673
-8.9363 6.86009 -5.68673
8.9363 6.83777 -5.68673
-7.31152 7.33673 -5.68673
7.31152 7.3351 -5.68673
-5.68674 7.89629 -5.68673
5.68673 7.89402 -5.68673
-4.06195 8.17513 -5.68673
-3.49341 8.33786 -5.68673
3.53683 8.33786 -5.68673
4.06195 8.19205 -5.68673
-2.43717 8.68368 -5.68673
2.43717 8.68375 -5.68673
-0.812391 8.91406 -5.68673
0.812389 8.91309 -5.68673
-4.06195 18.4919 -5.68673
-2.43717 18.4919 -5.68673
-0.812391 18.4919 -5.68673
0.812389 18.4919 -5.68673
2.43717 18.4919 -5.68673
4.06195 18.4919 -5.68673
-5.68674 18.9146 -5.68673
5.68673 18.9205 -5.68673
-6.005 19.8547 -5.68673
6.00037 19.8547 -5.68673
-5.95182 21.5 -5.68673
5.9446 21.5 -5.68673
-5.68674 21.8491 -5.68673
5.68673 21.8411 -5.68673
-4.06195 22.0055 -5.68673
-2.43717 22.0055 -5.68673
-0.812391 22.0055 -5.68673
0.812389 22.0055 -5.68673
2.43717 22.0055 -5.68673
4.06195 22.0055 -5.68673
-4.06195 37.9527 -5.92522
-2.43717 37.9527 -5.92522
-0.812391 37.9527 -5.92522
0.812389 37.9527 -5.92522
2.43717 37.9527 -5.92522
4.06195 37.9527 -5.92522
-4.06195 38.1233 -5.68673
-2.43717 38.1233 -5.68673
-0.812391 38.1233 -5.68673
0.812389 38.1233 -5.68673
2.43717 38.1233 -5.68673
4.06195 38.1233 -5.68673
-5.68674 38.478 -5.68673
5.68673 38.4796 -5.68673
-6.005 39.5979 -5.68673
6.00037 39.5979 -5.68673
-5.78385 41.3558 -5.68673
-4.06195 41.5432 -5.68673
-2.43717 41.5432 -5.68673
-0.812391 41.5432 -5.68673
0.812389 41.5432 -5.68673
2.43717 41.5432 -5.68673
4.06195 41.5432 -5.68673
5.77398 41.3448 -5.68673
-4.06195 8.33786 -5.27151
4.06195 8.33786 -5.30679
-0.812391 18.2095 -5.32165
0.812389 18.2095 -5.32099
-0.812391 9.98313 -4.84813
0.812389 9.98313 -4.84693
-0.812391 11.6284 -4.8435
0.812389 11.6284 -4.84259
-0.812391 13.2737 -4.84351
0.812389 13.2737 -4.84259
-0.812391 14.9189 -4.84351
0.812389 14.9189 -4.84259
-0.812391 16.5642 -4.84351
0.812389 16.5642 -4.84258
-5.68674 18.2095 -4.88756
-4.06195 18.2095 -5.06917
-2.43717 18.2095 -5.11966
2.43717 18.2095 -5.11374
4.06195 18.2095 -5.06917
5.68673 18.2095 -4.88598
-5.68674 21.5 -5.12449
-4.06195 21.5 -4.93014
-2.43717 21.5 -4.93014
-0.812391 21.5 -4.93014
0.812389 21.5 -4.93014
2.43717 21.5 -4.93014
4.06195 21.5 -4.93014
5.68673 21.5 -5.13523
-15.4354 -0.0512971 -4.06195
-13.8106 -0.0512971 -4.06195
-12.1859 -0.0512971 -4.06195
-10.5611 -0.0512971 -4.06195
-8.9363 -0.0512971 -4.06195
-7.31152 -0.0512971 -4.06195
-5.68674 -0.0512971 -4.06195
-4.06195 -0.0512971 -4.06195
-2.43717 -0.0512971 -4.06195
-0.812391 -0.0512971 -4.06195
0.812389 -0.0512971 -4.06195
2.43717 -0.0512971 -4.06195
4.06195 -0.0512971 -4.06195
5.68673 -0.0512971 -4.06195
7.31152 -0.0512971 -4.06195
8.9363 -0.0512971 -4.06195
10.5611 -0.0512971 -4.06195
12.1859 -0.0512971 -4.06195
13.8106 -0.0512971 -4.06195
15.4354 -0.0512971 -4.06195
-15.7231 0.111531 -4.06195
15.7212 0.111531 -4.06195
-15.4354 0.852065 -4.06195
15.4354 0.861466 -4.06195
-15.1483 1.7568 -4.06195
15.1529 1.7568 -4.06195
-13.8106 3.10419 -4.06195
13.8106 3.1088 -4.06195
-13.5128 3.40207 -4.06195
13.5174 3.40207 -4.06195
-12.1859 4.73869 -4.06195
12.1859 4.74059 -4.06195
-11.8771 5.04733 -4.06195
11.8791 5.04733 -4.06195
-10.5611 6.37244 -4.06195
10.5611 6.35952 -4.06195
-9.99301 6.6926 -4.06195
9.9744 6.6926 -4.06195
-8.9363 7.1474 -4.06195
8.9363 7.1457 -4.06195
-7.31152 7.71796 -4.06195
7.31152 7.71633 -4.06195
-5.68674 8.17398 -4.06195
-5.26913 8.33786 -4.06195
5.31516 8.33786 -4.06195
5.68673 8.19579 -4.06195
-4.06195 8.96998 -4.06195
4.06195 8.96454 -4.06195
-2.61366 9.98313 -4.18914
2.60996 9.98313 -4.18755
-2.61319 11.6284 -4.18295
2.60986 11.6284 -4.18087
-2.61319 13.2737 -4.18295
2.60986 13.2737 -4.18087
-2.61319 14.9189 -4.18295
2.60986 14.9189 -4.18087
-2.61319 16.5642 -4.18295
2.60986 16.5642 -4.18086
-5.68674 17.933 -4.06195
-4.06195 17.6496 -4.06195
4.06195 17.6522 -4.06195
5.68673 17.9339 -4.06195
-5.94471 18.2095 -4.06195
5.9431 18.2095 -4.06195
-6.005 19.8547 -4.06195
6.00037 19.8547 -4.06195
-5.68674 20.5096 -4.06195
5.68673 20.5038 -4.06195
-4.06195 20.9459 -4.06195
-2.43717 20.9459 -4.06195
-0.812391 20.9459 -4.06195
0.812389 20.9459 -4.06195
2.43717 20.9459 -4.06195
4.06195 20.9459 -4.06195
-4.06195 39.0759 -4.06195
-2.43717 39.0759 -4.06195
-0.812391 39.0759 -4.06195
0.812389 39.0759 -4.06195
2.43717 39.0759 -4.06195
4.06195 39.0759 -4.06195
-5.8188 39.4236 -4.06195
5.82356 39.4172 -4.06195
-6.005 41.2432 -4.06195
6.00037 41.2432 -4.06195
-5.68674 41.7698 -4.06195
5.68673 41.7645 -4.06195
-4.06195 42.1976 -4.06195
-2.43717 42.1976 -4.06195
-0.812391 42.1976 -4.06195
0.812389 42.1976 -4.06195
2.43717 42.1976 -4.06195
4.06195 42.1976 -4.06195
-5.68674 8.33786 -3.49261
5.68673 8.33786 -3.5451
-15.4354 1.7568 -3.16507
15.4354 1.7568 -3.11208
-13.8106 3.40207 -3.14838
13.8106 3.40207 -3.09463
-12.1859 5.04733 -3.13204
12.1859 5.04733 -3.07342
-15.4354 -0.0512973 -2.43717
-13.8106 -0.0512973 -2.43717
-12.1859 -0.0512973 -2.43717
-10.5611 -0.0512973 -2.43717
-8.9363 -0.0512973 -2.43717
-7.31152 -0.0512973 -2.43717
-5.68674 -0.0512973 -2.43717
-4.06195 -0.0512973 -2.43717
-2.43717 -0.0512973 -2.43717
-0.812391 -0.0512973 -2.43717
0.812389 -0.0512973 -2.43717
2.43717 -0.0512973 -2.43717
4.06195 -0.0512973 -2.43717
5.68673 -0.0512973 -2.43717
7.31152 -0.0512973 -2.43717
8.9363 -0.0512973 -2.43717
10.5611 -0.0512973 -2.43717
12.1859 -0.0512973 -2.43717
13.8106 -0.0512973 -2.43717
15.4354 -0.0512973 -2.43717
-15.8592 0.111531 -2.43717
15.8544 0.111531 -2.43717
-15.648 1.7568 -2.43717
-15.4354 1.97397 -2.43717
15.4354 1.94571 -2.43717
15.6199 1.7568 -2.43717
-14.0228 3.40206 -2.43717
13.9027 3.49426 -2.43717
-13.8106 3.61452 -2.43717
-12.3934 5.04733 -2.43717
12.3656 5.04733 -2.43717
-12.1859 5.25516 -2.43717
12.1859 5.2273 -2.43717
-10.5611 5.773 -2.43717
10.5611 5.79948 -2.43717
-9.85978 6.6926 -2.43717
9.93043 6.6926 -2.43717
-8.9363 6.98891 -2.43717
8.9363 7.00465 -2.43717
-7.31152 7.97893 -2.43717
7.31152 7.97242 -2.43717
-6.49669 8.33786 -2.43717
6.48896 8.33786 -2.43717
-5.68674 8.68462 -2.43717
5.68673 8.68137 -2.43717
-4.18808 9.98313 -2.61258
4.18674 9.98313 -2.60935
-4.18205 11.6284 -2.61211
4.18014 11.6284 -2.60925
-4.18205 13.2737 -2.6121
4.18014 13.2737 -2.60925
-4.18205 14.9189 -2.6121
4.18014 14.9189 -2.60925
-4.21426 16.5642 -2.6121
4.21247 16.5642 -2.60925
-5.68674 17.7788 -2.43717
5.68673 17.7836 -2.43717
-6.005 18.2095 -2.43717
6.00037 18.2095 -2.43717
-6.005 19.8547 -2.43717
5.98767 19.8547 -2.43717
-5.68674 20.255 -2.43717
5.68673 20.2355 -2.43717
-4.06195 20.4886 -2.43717
-2.43717 20.4886 -2.43717
-0.812391 20.4886 -2.43717
0.812389 20.4886 -2.43717
2.43717 20.4886 -2.43717
4.06195 20.4886 -2.43717
-5.75547 39.5378 -2.43717
-4.06195 39.4495 -2.43717
-2.43717 39.4495 -2.43717
-0.812391 39.4495 -2.43717
0.812389 39.4495 -2.43717
2.43717 39.4495 -2.43717
4.06195 39.4495 -2.43717
5.76515 39.529 -2.43717
-6.005 41.2432 -2.43717
6.00037 41.2432 -2.43717
-5.68674 42.0154 -2.43717
5.68673 42.0094 -2.43717
-4.06195 42.5145 -2.43717
-2.43717 42.5145 -2.43717
-0.812391 42.5145 -2.43717
0.812389 42.5145 -2.43717
2.43717 42.5145 -2.43717
4.06195 42.5145 -2.43717
-10.5611 0.111531 -2.01928
10.5611 0.111531 -2.01372
-10.5611 5.04733 -2.12053
10.5611 5.04733 -2.12788
-8.9363 6.6926 -2.18636
8.9363 6.6926 -2.17294
-8.9363 0.11153 -1.68839
8.9363 0.11153 -1.7131
-8.9363 5.04733 -1.60698
8.9363 5.04733 -1.62985
-5.68674 39.5979 -1.92504
-4.06195 39.5979 -1.84151
-2.43717 39.5979 -1.8415
-0.812391 39.5979 -1.8415
0.812389 39.5979 -1.84151
2.43717 39.5979 -1.8415
4.06195 39.5979 -1.8415
5.68673 39.5979 -1.87159
-10.5611 1.7568 -1.33164
10.5611 1.7568 -1.3251
-10.5611 3.40206 -1.33164
10.5611 3.40206 -1.3251
-12.1859 5.04733 -1.3451
-15.4354 -0.0512975 -0.812389
-13.8106 -0.0512975 -0.812389
-12.1859 -0.0512975 -0.812389
-7.31152 -0.0512975 -0.812389
-5.68674 -0.0512975 -0.812389
-4.06195 -0.0512975 -0.812389
-2.43717 -0.0512975 -0.812389
-0.812391 -0.0512975 -0.812389
0.812389 -0.0512975 -0.812389
2.43717 -0.0512975 -0.812389
4.06195 -0.0512975 -0.812389
5.68673 -0.0512975 -0.812389
7.31152 -0.0512975 -0.812389
12.1859 -0.0512975 -0.812389
13.8106 -0.0512975 -0.812389
15.4354 -0.0512975 -0.812389
-16.1421 0.11153 -0.812389
-11.768 0.11153 -0.812389
-8.0603 0.11153 -0.812389
8.03558 0.11153 -0.812389
11.7624 0.11153 -0.812389
16.1269 0.11153 -0.812389
-15.8285 1.7568 -0.812389
-11.1511 1.7568 -0.812389
-8.9363 1.7568 -1.03673
-8.7356 1.7568 -0.812389
8.73139 1.7568 -0.812389
8.9363 1.7568 -1.04135
11.1422 1.7568 -0.812389
15.8238 1.7568 -0.812389
-15.4354 2.15173 -0.812389
15.4354 2.14709 -0.812389
-14.1851 3.40206 -0.812389
-11.1518 3.40206 -0.812389
-8.9363 3.40206 -1.03673
-8.7356 3.40206 -0.812389
8.73089 3.40206 -0.812389
8.9363 3.40206 -1.04135
11.1422 3.40206 -0.812389
14.1805 3.40206 -0.812389
-13.8106 3.77651 -0.812389
13.8106 3.77187 -0.812389
-12.1859 4.90502 -0.812389
-8.34708 5.04733 -0.812389
8.31179 5.04733 -0.812389
11.9126 5.04733 -0.812389
12.2673 5.10255 -0.812389
-7.69768 6.6926 -0.812388
7.6931 6.6926 -0.812388
-7.31152 7.71419 -0.812388
7.31152 7.6998 -0.812388
-6.78409 8.33786 -0.812388
6.77376 8.33786 -0.812388
-5.68674 8.91262 -0.812388
5.68673 8.90779 -0.812388
-4.84626 9.98313 -0.812388
4.84022 9.98313 -0.812388
-4.84165 11.6284 -0.812388
4.83701 11.6284 -0.812388
-4.84165 13.2737 -0.812388
4.83701 13.2737 -0.812388
-4.84165 14.9189 -0.812387
4.83701 14.9189 -0.812387
-4.99567 16.5642 -0.812387
4.99003 16.5642 -0.812387
-5.68674 17.6165 -0.812387
5.68673 17.6252 -0.812387
-6.005 18.2095 -0.812387
6.00037 18.2095 -0.812387
-5.9265 19.8547 -0.812387
5.91546 19.8547 -0.812387
-5.68674 20.0975 -0.812387
-4.06195 20.1727 -0.812387
-2.43717 20.1727 -0.812387
-0.812391 20.1727 -0.812387
0.812389 20.1727 -0.812387
2.43717 20.1727 -0.812387
4.06195 20.1727 -0.812387
5.68673 20.0871 -0.812387
-4.06195 39.8735 -0.812384
-2.43717 39.8735 -0.812384
-0.812391 39.8735 -0.812384
0.812389 39.8735 -0.812384
2.43717 39.8735 -0.812384
4.06195 39.8735 -0.812384
-5.68674 40.3423 -0.812384
5.68673 40.3483 -0.812384
-6.005 41.2432 -0.812384
6.00037 41.2432 -0.812384
-5.68674 42.3893 -0.812384
5.68673 42.3829 -0.812384
-4.06195 42.7308 -0.812384
-2.43717 42.7308 -0.812384
-0.812391 42.7308 -0.812384
0.812389 42.7308 -0.812384
2.43717 42.7308 -0.812384
4.06195 42.7308 -0.812384
12.1859 5.04733 -0.038379
-15.4354 -0.0512978 0.812391
-13.8106 -0.0512978 0.812391
-12.1859 -0.0512978 0.812391
-7.31152 -0.0512978 0.812391
-5.68674 -0.0512978 0.812391
-4.06195 -0.0512978 0.812391
-2.43717 -0.0512978 0.812391
-0.812391 -0.0512978 0.812391
0.812389 -0.0512978 0.812391
2.43717 -0.0512978 0.812391
4.06195 -0.0512978 0.812391
5.68673 -0.0512978 0.812391
7.31152 -0.0512978 0.812391
12.1859 -0.0512978 0.812391
13.8106 -0.0512978 0.812391
15.4354 -0.0512978 0.812391
-16.14 0.11153 0.812391
-11.7606 0.11153 0.812391
-8.06095 0.11153 0.812391
8.07453 0.11153 0.812391
11.7593 0.11153 0.812391
16.1197 0.11153 0.812391
-15.8267 1.7568 0.812392
-11.1405 1.7568 0.812392
-8.9363 1.7568 1.04348
-8.72858 1.7568 0.812392
8.74876 1.7568 0.812392
8.9363 1.7568 1.021
11.1382 1.7568 0.812392
15.8218 1.7568 0.812392
-15.4354 2.14988 0.812392
15.4354 2.14524 0.812392
-14.1843 3.40206 0.812392
-11.1405 3.40206 0.812392
-8.9363 3.40206 1.04348
-8.72858 3.40206 0.812392
8.74805 3.40206 0.812392
8.9363 3.40206 1.021
11.1382 3.40206 0.812392
14.1786 3.40206 0.812392
-13.8106 3.77571 0.812392
13.8106 3.77003 0.812392
-12.1859 4.89886 0.812392
-8.35017 5.04733 0.812392
8.34141 5.04733 0.812392
12.1859 4.85976 0.812392
-7.69966 6.6926 0.812392
7.69705 6.6926 0.812392
-7.31152 7.7133 0.812392
7.31152 7.69983 0.812392
-6.78115 8.33786 0.812392
6.77084 8.33786 0.812392
-5.68674 8.91094 0.812392
5.68673 8.90613 0.812392
-4.84413 9.98313 0.812392
4.8381 9.98313 0.812392
-4.8398 11.6284 0.812393
4.83516 11.6284 0.812393
-4.8398 13.2737 0.812393
4.83516 13.2737 0.812393
-4.8398 14.9189 0.812393
4.83516 14.9189 0.812393
-4.99345 16.5642 0.812393
4.98781 16.5642 0.812393
-5.68674 17.6177 0.812394
5.68673 17.6264 0.812394
-6.005 18.2095 0.812394
6.00037 18.2095 0.812394
-5.92071 19.8547 0.812394
5.90218 19.8547 0.812394
-5.68674 20.092 0.812394
-4.06195 20.1701 0.812394
-2.43717 20.1701 0.812394
-0.812391 20.1701 0.812394
0.812389 20.1701 0.812394
2.43717 20.1701 0.812394
4.06195 20.1701 0.812394
5.68673 20.0739 0.812394
-4.06195 39.8773 0.812397
-2.43717 39.8773 0.812397
-0.812391 39.8773 0.812397
0.812389 39.8773 0.812397
2.43717 39.8773 0.812397
4.06195 39.8773 0.812397
-5.68674 40.3479 0.812397
5.68673 40.3539 0.812397
-6.005 41.2432 0.812397
6.00037 41.2432 0.812397
-5.68674 42.4262 0.812397
-4.06195 42.7453 0.812397
-2.43717 42.7453 0.812397
-0.812391 42.7453 0.812397
0.812389 42.7453 0.812397
2.43717 42.7453 0.812397
4.06195 42.7453 0.812397
5.68673 42.4205 0.812397
-10.5611 1.7568 1.32039
10.5611 1.7568 1.31872
-10.5611 3.40206 1.32039
10.5611 3.40206 1.31872
-12.1859 5.04733 1.38075
-8.9363 5.04733 1.57002
8.9363 5.04733 1.56884
12.1859 5.04733 1.53524
-8.9363 0.11153 1.68774
8.9363 0.11153 1.67416
-5.68674 39.5979 1.95019
-4.06195 39.5979 1.85949
-2.43717 39.5979 1.85949
-0.812391 39.5979 1.85949
0.812389 39.5979 1.85949
2.43717 39.5979 1.85949
4.06195 39.5979 1.85949
5.68673 39.5979 1.9
-10.5611 0.11153 2.01196
10.5611 0.11153 2.01057
-10.5611 5.04733 2.08624
10.5611 5.04733 2.0644
-8.9363 6.6926 2.17397
8.9363 6.6926 2.16636
-15.4354 -0.051298 2.43717
-13.8106 -0.051298 2.43717
-12.1859 -0.051298 2.43717
-10.5611 -0.051298 2.43717
-8.9363 -0.051298 2.43717
-7.31152 -0.051298 2.43717
-5.68674 -0.051298 2.43717
-4.06195 -0.051298 2.43717
-2.43717 -0.051298 2.43717
-0.812391 -0.051298 2.43717
0.812389 -0.051298 2.43717
2.43717 -0.051298 2.43717
4.06195 -0.051298 2.43717
5.68673 -0.051298 2.43717
7.31152 -0.051298 2.43717
8.9363 -0.051298 2.43717
10.5611 -0.051298 2.43717
12.1859 -0.051298 2.43717
13.8106 -0.051298 2.43717
15.4354 -0.051298 2.43717
-15.8578 0.11153 2.43717
15.8529 0.11153 2.43717
-15.649 1.7568 2.43717
-15.4354 1.97497 2.43717
15.4354 1.94226 2.43717
15.6164 1.7568 2.43717
-14.0193 3.40206 2.43718
13.901 3.49255 2.43718
-13.8106 3.61094 2.43718
-12.3853 5.04733 2.43718
12.3622 5.04733 2.43718
-12.1859 5.247 2.43718
12.1859 5.22389 2.43718
-10.5611 5.8682 2.43718
10.5611 5.90034 2.43718
-9.92928 6.6926 2.43718
9.9452 6.6926 2.43718
-8.9363 7.0023 2.43718
8.9363 7.01018 2.43718
-7.31152 7.97801 2.43718
7.31152 7.97418 2.43718
-6.49989 8.33786 2.43718
6.48728 8.33786 2.43718
-5.68674 8.68707 2.43718
5.68673 8.68335 2.43718
-4.18261 9.98313 2.60376
4.19152 9.98313 2.61356
-4.17646 11.6284 2.60366
4.18371 11.6284 2.61356
-4.17646 13.2737 2.60366
4.18371 13.2737 2.61356
-4.17646 14.9189 2.60366
4.18371 14.9189 2.61356
-4.20773 16.5642 2.60366
4.21697 16.5642 2.61356
-5.68674 17.7796 2.43718
5.68673 17.7838 2.43718
-6.005 18.2095 2.43718
6.00037 18.2095 2.43718
-6.005 19.8547 2.43718
5.98915 19.8547 2.43718
-5.68674 20.2555 2.43718
5.68673 20.2377 2.43718
-4.06195 20.4904 2.43718
-2.43717 20.4904 2.43718
-0.812391 20.4904 2.43718
0.812389 20.4904 2.43718
2.43717 20.4904 2.43718
4.06195 20.4904 2.43718
-5.75184 39.5409 2.43718
-4.06195 39.4539 2.43718
-2.43717 39.4539 2.43718
-0.812391 39.4539 2.43718
0.812389 39.4539 2.43718
2.43717 39.4539 2.43718
4.06195 39.4539 2.43718
5.7607 39.5329 2.43718
-6.005 41.2432 2.43718
6.00037 41.2432 2.43718
-5.68674 42.0133 2.43718
5.68673 42.0073 2.43718
-4.06195 42.5122 2.43718
-2.43717 42.5122 2.43718
-0.812391 42.5122 2.43718
0.812389 42.5122 2.43718
2.43717 42.5122 2.43718
4.06195 42.5122 2.43718
-15.4354 1.7568 3.16516
15.4354 1.7568 3.09687
-13.8106 3.40206 3.13863
13.8106 3.40206 3.07966
-12.1859 5.04733 3.11209
12.1859 5.04733 3.06104
-5.68674 8.33786 3.5396
5.68673 8.33786 3.56518
-15.4354 -0.0512982 4.06195
-13.8106 -0.0512982 4.06195
-12.1859 -0.0512982 4.06195
-10.5611 -0.0512982 4.06195
-8.9363 -0.0512982 4.06195
-7.31152 -0.0512982 4.06195
-5.68674 -0.0512982 4.06195
-4.06195 -0.0512982 4.06195
-2.43717 -0.0512982 4.06195
-0.812391 -0.0512982 4.06195
0.812389 -0.0512982 4.06195
2.43717 -0.0512982 4.06195
4.06195 -0.0512982 4.06195
5.68673 -0.0512982 4.06195
7.31152 -0.0512982 4.06195
8.9363 -0.0512982 4.06195
10.5611 -0.0512982 4.06195
12.1859 -0.0512982 4.06195
13.8106 -0.0512982 4.06195
15.4354 -0.0512982 4.06195
-15.7226 0.11153 4.06195
15.7206 0.11153 4.06195
-15.4354 0.849521 4.06195
15.4354 0.853699 4.06195
-15.1465 1.7568 4.06195
15.1481 1.7568 4.06195
-13.8106 3.10238 4.06195
13.8106 3.10399 4.06195
-13.511 3.40206 4.06195
13.5126 3.40206 4.06195
-12.1859 4.73686 4.06195
12.1859 4.73727 4.06195
-11.8751 5.04733 4.06195
11.8758 5.04733 4.06195
-10.5611 6.37076 4.06195
10.5611 6.35696 4.06195
-9.98953 6.6926 4.06195
9.96943 6.6926 4.06195
-8.9363 7.1452 4.06195
8.9363 7.14354 4.06195
-7.31152 7.71578 4.06195
7.31152 7.71415 4.06195
-5.68674 8.1906 4.06195
-5.30308 8.33786 4.06195
5.33043 8.33786 4.06195
5.68673 8.20295 4.06195
-4.06195 8.96171 4.06195
4.06195 8.96064 4.06195
-2.59897 9.98313 4.17859
2.61147 9.98313 4.18965
-2.59887 11.6284 4.17266
2.61146 11.6284 4.18205
-2.59887 13.2737 4.17266
2.61146 13.2737 4.18205
-2.59887 14.9189 4.17266
2.61147 14.9189 4.18205
-2.59887 16.5642 4.17266
2.61147 16.5642 4.18205
-5.68674 17.9441 4.06196
-4.06195 17.6556 4.06196
4.06195 17.656 4.06196
5.68673 17.9326 4.06196
-5.9346 18.2095 4.06196
5.94468 18.2095 4.06196
-6.005 19.8547 4.06196
6.00037 19.8547 4.06196
-5.68674 20.5138 4.06196
5.68673 20.508 4.06196
-4.06195 20.951 4.06196
-2.43717 20.951 4.06196
-0.812391 20.951 4.06196
0.812389 20.951 4.06196
2.43717 20.951 4.06196
4.06195 20.951 4.06196
-4.06195 39.0711 4.06196
-2.43717 39.0711 4.06196
-0.812391 39.0711 4.06196
0.812389 39.0711 4.06196
2.43717 39.0711 4.06196
4.06195 39.0711 4.06196
-5.82348 39.4171 4.06196
5.82143 39.4191 4.06196
-6.005 41.2432 4.06196
6.00037 41.2432 4.06196
-5.68674 41.7688 4.06196
5.68673 41.7636 4.06196
-4.06195 42.1958 4.06196
-2.43717 42.1958 4.06196
-0.812391 42.1958 4.06196
0.812389 42.1958 4.06196
2.43717 42.1958 4.06196
4.06195 42.1958 4.06196
-0.812391 9.98313 4.83743
0.812389 9.98313 4.83623
-0.812391 11.6284 4.83422
0.812389 11.6284 4.8333
-0.812391 13.2737 4.83422
0.812389 13.2737 4.8333
-0.812391 14.9189 4.83422
0.812389 14.9189 4.8333
-0.812391 16.5642 4.83423
0.812389 16.5642 4.8333
-5.68674 18.2095 4.88622
-4.06195 18.2095 5.0842
-2.43717 18.2095 5.13022
2.43717 18.2095 5.13043
4.06195 18.2095 5.08421
5.68673 18.2095 4.90686
-5.68674 21.5 5.11032
-4.06195 21.5 4.92086
-2.43717 21.5 4.92086
-0.812391 21.5 4.92086
0.812389 21.5 4.92086
2.43717 21.5 4.92086
4.06195 21.5 4.92086
5.68673 21.5 5.13898
-4.06195 8.33786 5.30157
4.06195 8.33786 5.325
-0.812391 18.2095 5.33096
0.812389 18.2095 5.33041
-15.4354 -0.0279854 5.68674
-13.8106 -0.0512984 5.68674
-12.1859 -0.0512984 5.68674
-10.5611 -0.0512984 5.68674
-8.9363 -0.0512984 5.68674
-7.31152 -0.0512984 5.68674
-5.68674 -0.0512984 5.68674
-4.06195 -0.0512984 5.68674
-2.43717 -0.0512984 5.68674
-0.812391 -0.0512984 5.68674
0.812389 -0.0512984 5.68674
2.43717 -0.0512984 5.68674
4.06195 -0.0512984 5.68674
5.68673 -0.0512984 5.68674
7.31152 -0.0512984 5.68674
8.9363 -0.0512984 5.68674
10.5611 -0.0512984 5.68674
12.1859 -0.0512984 5.68674
13.8106 -0.0512984 5.68674
15.4354 -0.0374935 5.68674
-15.6221 0.11153 5.68674
15.6335 0.11153 5.68674
-15.4354 0.540909 5.68674
15.4354 0.561607 5.68674
-14.8509 1.7568 5.68674
14.847 1.7568 5.68674
-13.8106 2.7816 5.68674
13.8106 2.7798 5.68674
-13.096 3.40206 5.68674
13.093 3.40206 5.68674
-12.1859 4.19289 5.68674
12.1859 4.18896 5.68674
-11.178 5.04733 5.68674
11.1733 5.04733 5.68674
-10.5611 5.57031 5.68674
10.5611 5.56638 5.68674
-9.21234 6.6926 5.68674
9.17829 6.6926 5.68674
-8.9363 6.85688 5.68674
8.9363 6.83546 5.68674
-7.31152 7.33455 5.68674
7.31152 7.33292 5.68674
-5.68674 7.89264 5.68674
5.68673 7.89222 5.68674
-4.06195 8.18984 5.68674
-3.5364 8.33786 5.68674
3.56211 8.33786 5.68674
4.06195 8.2005 5.68674
-2.43717 8.68515 5.68674
2.43717 8.68566 5.68674
-0.812391 8.90566 5.68674
0.812389 8.90471 5.68674
-4.06195 18.4827 5.68674
-2.43717 18.4827 5.68674
-0.812391 18.4827 5.68674
0.812389 18.4827 5.68674
2.43717 18.4827 5.68674
4.06195 18.4827 5.68674
-5.68674 18.8969 5.68674
5.68673 18.9027 5.68674
-6.005 19.8547 5.68674
6.00037 19.8547 5.68674
-5.958 21.5 5.68674
5.94007 21.5 5.68674
-5.68674 21.8583 5.68674
5.68673 21.8369 5.68674
-4.06195 22.0117 5.68674
-2.43717 22.0117 5.68674
-0.812391 22.0117 5.68674
0.812389 22.0117 5.68674
2.43717 22.0117 5.68674
4.06195 22.0117 5.68674
-4.06195 37.9527 5.91657
-2.43717 37.9527 5.91657
-0.812391 37.9527 5.91657
0.812389 37.9527 5.91657
2.43717 37.9527 5.91657
4.06195 37.9527 5.91657
-4.06195 38.117 5.68674
-2.43717 38.117 5.68674
-0.812391 38.117 5.68674
0.812389 38.117 5.68674
2.43717 38.117 5.68674
4.06195 38.117 5.68674
-5.68674 38.4622 5.68674
5.68673 38.4665 5.68674
-6.005 39.5979 5.68674
6.00037 39.5979 5.68674
-5.78782 41.3598 5.68674
-4.06195 41.5521 5.68674
-2.43717 41.5521 5.68674
-0.812391 41.5521 5.68674
0.812389 41.5521 5.68674
2.43717 41.5521 5.68674
4.06195 41.5521 5.68674
5.78502 41.357 5.68674
-15.4354 0.111529 6.32196
15.4354 0.111529 6.34307
-8.9363 6.6926 6.10376
8.9363 6.6926 6.05642
-5.68674 37.9527 6.18988
5.68673 37.9527 6.19419
-5.68674 41.2432 6.04454
-4.06195 41.2432 6.14697
-2.43717 41.2432 6.14697
-0.812391 41.2432 6.14697
0.812389 41.2432 6.14697
2.43717 41.2432 6.14697
4.06195 41.2432 6.14697
5.68673 41.2432 6.03664
-10.5611 5.04733 6.61
10.5611 5.04733 6.60306
-2.43717 8.33786 6.49549
-0.812391 8.33786 6.77113
0.812389 8.33786 6.76909
2.43717 8.33786 6.49064
-12.1859 3.40206 6.92715
12.1859 3.40206 6.93733
-5.68674 23.1453 7.08367
-4.06195 23.1453 7.07434
-2.43717 23.1453 7.07434
-0.812391 23.1453 7.07434
0.812389 23.1453 7.07434
2.43717 23.1453 7.07434
4.06195 23.1453 7.07434
5.68673 23.1453 7.11362
-13.8106 -0.0512986 7.31152
-12.1859 -0.0512986 7.31152
-10.5611 -0.0512986 7.31152
-8.9363 -0.0512986 7.31152
-7.31152 -0.0512986 7.31152
-5.68674 -0.0512986 7.31152
-4.06195 -0.0512986 7.31152
-2.43717 -0.0512986 7.31152
-0.812391 -0.0512986 7.31152
0.812389 -0.0512986 7.31152
2.43717 -0.0512986 7.31152
4.06195 -0.0512986 7.31152
5.68673 -0.0512986 7.31152
7.31152 -0.0512986 7.31152
8.9363 -0.0512986 7.31152
10.5611 -0.0512986 7.31152
12.1859 -0.0512986 7.31152
13.8106 -0.0512986 7.31152
-14.5128 0.111529 7.31152
14.5056 0.111529 7.31152
-14.0883 1.7568 7.31152
-13.8106 1.99638 7.31152
13.8106 1.97871 7.31152
14.0679 1.7568 7.31152
-12.1859 3.17308 7.31152
12.1859 3.18036 7.31152
-11.9192 3.40206 7.31152
11.9273 3.40206 7.31152
-10.5611 4.64996 7.31152
10.5611 4.64602 7.31152
-10.0923 5.04733 7.31152
10.0877 5.04733 7.31152
-8.9363 6.02737 7.31152
8.9363 6.02343 7.31152
-7.88578 6.6926 7.31152
7.87697 6.6926 7.31152
-7.31152 6.96418 7.31152
7.31152 6.96008 7.31152
-5.68674 7.33374 7.31152
5.68673 7.33265 7.31152
-4.06195 7.71497 7.31152
4.06195 7.71388 7.31152
-2.43717 8.00552 7.31152
-0.812391 8.10673 7.31152
0.812389 8.10571 7.31152
2.43717 8.00473 7.31152
-4.06195 19.5553 7.31152
-2.43717 19.5553 7.31152
-0.812391 19.5553 7.31152
0.812389 19.5553 7.31152
2.43717 19.5553 7.31152
4.06195 19.5553 7.31152
-5.77618 19.7509 7.31152
5.7832 19.7426 7.31152
-6.005 21.5 7.31152
6.00037 21.5 7.31152
-5.8572 23.1453 7.31152
5.83353 23.1453 7.31152
-5.68674 23.4029 7.31152
-4.06195 23.4133 7.31152
-2.43717 23.4133 7.31152
-0.812391 23.4133 7.31152
0.812389 23.4133 7.31152
2.43717 23.4133 7.31152
4.06195 23.4133 7.31152
5.68673 23.3696 7.31152
-4.06195 36.3074 7.58511
-2.43717 36.3074 7.58511
-0.812391 36.3074 7.58511
0.812389 36.3074 7.58511
2.43717 36.3074 7.58511
4.06195 36.3074 7.58511
-4.06195 36.651 7.31152
-2.43717 36.651 7.31152
-0.812391 36.651 7.31152
0.812389 36.651 7.31152
2.43717 36.651 7.31152
4.06195 36.651 7.31152
-5.68674 36.994 7.31152
5.68673 36.9999 7.31152
-6.005 37.9527 7.31152
6.00037 37.9527 7.31152
-6.005 39.5979 7.31153
6.00037 39.5979 7.31153
-5.68674 40.1345 7.31153
5.68673 40.1292 7.31153
-4.06195 40.4507 7.31153
-2.43717 40.4507 7.31153
-0.812391 40.4507 7.31153
0.812389 40.4507 7.31153
2.43717 40.4507 7.31153
4.06195 40.4507 7.31153
-13.8106 1.7568 7.71322
13.8106 1.7568 7.68618
-7.31152 6.6926 7.88469
7.31152 6.6926 7.87662
-5.68674 19.8547 7.63308
-4.06195 19.8547 7.75907
-2.43717 19.8547 7.75909
-0.812391 19.8547 7.75909
0.812389 19.8547 7.75909
2.43717 19.8547 7.75909
4.06195 19.8547 7.75907
5.68673 19.8547 7.65659
-5.68674 36.3074 7.98957
5.68673 36.3074 7.99537
-4.06195 24.7905 8.30717
-2.43717 24.7905 8.30717
-0.812391 24.7905 8.30717
0.812389 24.7905 8.30717
2.43717 24.7905 8.30717
4.06195 24.7905 8.30717
-5.68674 39.5979 8.27538
5.68673 39.5979 8.26961
-5.68674 24.7905 8.51166
5.68673 24.7905 8.52146
-5.68674 34.6621 8.73284
-4.06195 34.6621 8.66528
-2.43717 34.6621 8.66528
-0.812391 34.6621 8.66528
0.812389 34.6621 8.66528
2.43717 34.6621 8.66528
4.06195 34.6621 8.66528
5.68673 34.6621 8.73643
-4.06195 39.5979 8.55338
-2.43717 39.5979 8.55338
-0.812391 39.5979 8.55338
0.812389 39.5979 8.55338
2.43717 39.5979 8.55338
4.06195 39.5979 8.55338
-12.1859 -0.0512988 8.9363
-10.5611 -0.0512988 8.9363
-8.9363 -0.0512988 8.9363
-7.31152 -0.0512988 8.9363
-5.68674 -0.0512988 8.9363
-4.06195 -0.0512988 8.9363
-2.43717 -0.0512988 8.9363
-0.812391 -0.0512988 8.9363
0.812389 -0.0512988 8.9363
2.43717 -0.0512988 8.9363
4.06195 -0.0512988 8.9363
5.68673 -0.0512988 8.9363
7.31152 -0.0512988 8.9363
8.9363 -0.0512988 8.9363
10.5611 -0.0512988 8.9363
12.1859 -0.0512988 8.9363
13.8106 -0.00097535 8.9363
-13.8447 0.148995 8.99119
13.8627 0.204898 9.01901
-12.8882 1.7568 8.9363
12.8835 1.7568 8.9363
-12.1859 2.35219 8.9363
12.1859 2.34825 8.9363
-10.9628 3.40206 8.9363
10.9443 3.40206 8.9363
-10.5611 3.74335 8.9363
10.5611 3.72695 8.9363
-9.05973 5.04733 9.05958
9.05505 5.04733 9.05501
-8.9363 5.2565 8.9363
8.9363 5.2488 8.9363
-7.31152 6.0254 8.9363
7.31152 6.02278 8.9363
-6.08187 6.6926 8.9363
-5.68674 6.6926 9.19652
5.68673 6.6926 9.17806
6.05597 6.6926 8.9363
-5.68674 6.8469 8.9363
-4.06195 7.14437 8.9363
4.06195 7.14329 8.9363
5.68673 6.83536 8.9363
-2.43717 7.33251 8.9363
-0.812391 7.46638 8.9363
0.812389 7.466 8.9363
2.43717 7.33213 8.9363
-4.06195 20.7205 8.9363
-2.43717 20.7205 8.9363
-0.812391 20.7205 8.9363
0.812389 20.7205 8.9363
2.43717 20.7205 8.9363
4.06195 20.7205 8.9363
-5.68674 20.9843 8.9363
5.68673 20.9688 8.9363
-5.98941 21.5 8.9363
5.99936 21.5 8.9363
-6.005 23.1453 8.9363
6.00037 23.1453 8.9363
-5.9838 24.7905 8.9363
5.97539 24.7905 8.9363
-5.68674 25.5614 8.9363
5.68673 25.5485 8.9363
-4.06195 25.7967 8.9363
-2.43717 25.7967 8.9363
-0.812391 25.7967 8.9363
0.812389 25.7967 8.9363
2.43717 25.7967 8.9363
4.06195 25.7967 8.9363
-5.68674 34.2258 8.93631
-4.06195 34.1103 8.93631
-2.43717 34.1103 8.93631
-0.812391 34.1103 8.93631
0.812389 34.1103 8.93631
2.43717 34.1103 8.93631
4.06195 34.1103 8.93631
5.68673 34.2323 8.93631
-5.86641 34.6621 8.93631
5.86263 34.6621 8.93631
-6.005 36.3074 8.93631
6.00037 36.3074 8.93631
-6.005 37.9527 8.93631
6.00037 37.9527 8.93631
-5.68674 38.9287 8.93631
5.68673 38.9228 8.93631
-4.06195 39.2765 8.93631
-2.43717 39.2765 8.93631
-0.812391 39.2765 8.93631
0.812389 39.2765 8.93631
2.43717 39.2765 8.93631
4.06195 39.2765 8.93631
-10.5611 3.40206 9.51459
10.5611 3.40206 9.49244
-5.68674 21.5 9.39591
5.68673 21.5 9.41036
-4.06195 26.4358 9.28367
-2.43717 26.4358 9.28367
-0.812391 26.4358 9.28367
0.812389 26.4358 9.28367
2.43717 26.4358 9.28367
4.06195 26.4358 9.28367
-4.06195 33.0169 9.3962
-2.43717 33.0169 9.3962
-0.812391 33.0169 9.3962
0.812389 33.0169 9.3962
2.43717 33.0169 9.3962
4.06195 33.0169 9.3962
-12.1859 1.7568 9.9874
12.1859 1.7568 9.97304
-4.06195 6.6926 9.97363
4.06195 6.6926 9.97037
-4.06195 21.5 9.64725
-2.43717 21.5 9.64725
-0.812391 21.5 9.64725
0.812389 21.5 9.64725
2.43717 21.5 9.64725
4.06195 21.5 9.64725
-5.68674 26.4358 9.76532
5.68673 26.4358 9.77128
-4.06195 28.0811 9.61273
-2.43717 28.0811 9.61273
-0.812391 28.0811 9.61273
0.812389 28.0811 9.61273
2.43717 28.0811 9.61272
4.06195 28.0811 9.61272
-4.06195 29.7263 9.93654
-2.43717 29.7263 9.93654
-0.812391 29.7263 9.93654
0.812389 29.7263 9.93654
2.43717 29.7263 9.93654
4.06195 29.7263 9.93654
-4.06195 31.3716 9.72347
-2.43717 31.3716 9.72347
-0.812391 31.3716 9.72347
0.812389 31.3716 9.72347
2.43717 31.3716 9.72347
4.06195 31.3716 9.72347
-5.68674 33.0169 9.88813
5.68673 33.0169 9.8939
-5.68674 37.9527 9.60973
5.68673 37.9527 9.60396
-7.31152 5.04733 10.09
7.31152 5.04733 10.0869
-2.43717 6.6926 10.2465
2.43717 6.6926 10.2516
-5.68674 28.0811 10.0336
5.68673 28.0811 10.0388
-5.68674 29.7263 10.1707
5.68673 29.7263 10.1768
-5.68674 31.3716 10.0861
5.68673 31.3716 10.091
-4.06195 37.9527 10.0192
-2.43717 37.9527 10.0192
-0.812391 37.9527 10.0192
0.812389 37.9527 10.0192
2.43717 37.9527 10.0192
4.06195 37.9527 10.0192
-12.1859 -0.0512991 10.5611
-10.5611 -0.0512991 10.5611
-8.9363 -0.0512991 10.5611
-7.31152 -0.0512991 10.5611
-5.68674 -0.0512991 10.5611
-4.06195 -0.0512991 10.5611
-2.43717 -0.0512991 10.5611
-0.812391 -0.0512991 10.5611
0.812389 -0.0512991 10.5611
2.43717 -0.0512991 10.5611
4.06195 -0.0512991 10.5611
5.68673 -0.0512991 10.5611
7.31152 -0.0512991 10.5611
8.9363 -0.0512991 10.5611
10.5611 -0.0512991 10.5611
12.1859 -0.0512991 10.5611
-12.5338 0.111529 10.5611
12.531 0.111529 10.5611
12.1859 0.799883 10.5611
-12.1859 0.812663 10.5611
-11.7942 1.7568 10.5611
11.7843 1.7568 10.5611
-10.5611 2.77867 10.5611
10.5611 2.77769 10.5611
-9.51388 3.40206 10.5611
9.49901 3.40206 10.5611
-8.9363 3.74243 10.5611
8.9363 3.73152 10.5611
-7.31152 4.648 10.5611
7.31152 4.64537 10.5611
-6.60654 5.04733 10.5611
6.6019 5.04733 10.5611
-5.68674 5.56835 10.5611
5.68673 5.56572 10.5611
-4.06195 6.35907 10.5611
4.06195 6.35735 10.5611
-2.43717 6.51286 10.5611
-1.67382 6.6926 10.5611
1.67772 6.6926 10.5611
2.43717 6.51607 10.5611
-0.812391 6.85865 10.5611
0.812389 6.85696 10.5611
-5.74271 23.0543 10.6218
-4.06195 22.9767 10.6753
-2.43717 22.9767 10.6753
-0.812391 22.9767 10.6753
0.812389 22.9767 10.6753
2.43717 22.9767 10.6753
4.06195 22.9767 10.6753
5.74504 23.0505 10.6245
-6.005 24.7905 10.5611
6.00037 24.7905 10.5611
-6.005 26.4358 10.5611
6.00037 26.4358 10.5611
-6.005 28.0811 10.5611
6.00037 28.0811 10.5611
-5.9981 29.7263 10.5611
5.99202 29.7263 10.5611
-6.005 31.3716 10.5611
6.00037 31.3716 10.5611
-6.005 33.0169 10.5611
6.00037 33.0169 10.5611
-6.005 34.6621 10.5611
6.00037 34.6621 10.5611
-5.96386 36.3074 10.5611
5.96188 36.3074 10.5611
-5.68674 36.9228 10.5611
-4.06195 37.1417 10.5611
-2.43717 37.1417 10.5611
-0.812391 37.1417 10.5611
0.812389 37.1417 10.5611
2.43717 37.1417 10.5611
4.06195 37.1417 10.5611
5.68673 36.9208 10.5611
-8.9363 3.40206 10.9617
8.9363 3.40206 10.9493
-5.68674 5.04733 11.1757
5.68673 5.04733 11.1726
-0.812391 6.6926 10.8038
0.812389 6.6926 10.8014
-5.68674 36.3074 10.9393
-4.06195 36.3074 11.1186
-2.43717 36.3074 11.1186
-0.812391 36.3074 11.1186
0.812389 36.3074 11.1186
2.43717 36.3074 11.1186
4.06195 36.3074 11.1186
5.68673 36.3074 10.9378
-12.1859 0.111529 11.2482
12.1859 0.111529 11.2419
-5.68674 24.7905 11.4072
5.68673 24.7905 11.4013
-10.5611 1.7568 11.7912
10.5611 1.7568 11.7837
-7.31152 3.40206 11.917
7.31152 3.40206 11.9242
-4.06195 5.04733 11.8736
4.06195 5.04733 11.8728
-4.06195 24.7905 11.8357
-2.43717 24.7905 11.8357
-0.812391 24.7905 11.8357
0.812389 24.7905 11.8357
2.43717 24.7905 11.8357
4.06195 24.7905 11.8357
-5.68674 34.6621 11.614
-4.06195 34.6621 11.9955
-2.43717 34.6621 11.9955
-0.812391 34.6621 11.9955
0.812389 34.6621 11.9955
2.43717 34.6621 11.9955
4.06195 34.6621 11.9955
5.68673 34.6621 11.6086
-10.5611 -0.0512993 12.1859
-8.9363 -0.0512993 12.1859
-7.31152 -0.0512993 12.1859
-5.68674 -0.0512993 12.1859
-4.06195 -0.0512993 12.1859
-2.43717 -0.0512993 12.1859
-0.812391 -0.0512993 12.1859
0.812389 -0.0512993 12.1859
2.43717 -0.0512993 12.1859
4.06195 -0.0512993 12.1859
5.68673 -0.0512993 12.1859
7.31152 -0.0512993 12.1859
8.9363 -0.0512993 12.1859
10.5611 -0.0512993 12.1859
-11.2482 0.111529 12.1859
11.2419 0.111529 12.1859
10.5611 0.799103 12.1859
-10.5611 0.808624 12.1859
-9.98244 1.7568 12.1859
9.97189 1.7568 12.1859
-8.9363 2.35023 12.1859
8.9363 2.3476 12.1859
-7.31152 3.17125 12.1859
7.31152 3.17762 12.1859
-6.92408 3.40206 12.1859
6.9331 3.40206 12.1859
-5.68674 4.19094 12.1859
5.68673 4.18831 12.1859
-4.06195 4.7352 12.1859
4.06195 4.73428 12.1859
-3.09219 5.04733 12.1859
-2.43717 5.04733 12.3764
2.43717 5.04733 12.3695
3.075 5.04733 12.1859
-2.43717 5.23813 12.1859
-0.812391 5.40243 12.1859
0.812389 5.39862 12.1859
2.43717 5.23119 12.1859
-5.68674 25.9251 12.1859
-4.06195 25.8506 12.1859
-2.43717 25.8506 12.1859
-0.812391 25.8506 12.1859
0.812389 25.8506 12.1859
2.43717 25.8506 12.1859
4.06195 25.8506 12.1859
5.68673 25.9205 12.1859
-5.76105 26.4358 12.2518
-4.06195 26.4358 12.3446
-2.43717 26.4358 12.3446
-0.812391 26.4358 12.3446
0.812389 26.4358 12.3446
2.43717 26.4358 12.3446
4.06195 26.4358 12.3446
5.76171 26.4358 12.2526
-5.94472 28.0811 12.1859
5.95754 28.0811 12.1859
-6.005 29.7263 12.1859
6.00037 29.7263 12.1859
-5.97486 31.3716 12.1859
5.984 31.3716 12.1859
-5.78343 33.0169 12.2778
5.7822 33.0169 12.2769
-5.68674 33.8483 12.1859
-4.06195 33.9636 12.1859
-2.43717 33.9636 12.1859
-0.812391 33.9636 12.1859
0.812389 33.9636 12.1859
2.43717 33.9636 12.1859
4.06195 33.9636 12.1859
5.68673 33.8438 12.1859
-10.5611 0.111529 12.5327
10.5611 0.111529 12.5309
-0.812391 5.04733 12.5409
0.812389 5.04733 12.5371
-5.68674 28.0811 12.4682
-4.06195 28.0811 12.6127
-2.43717 28.0811 12.6127
-0.812391 28.0811 12.6127
0.812389 28.0811 12.6127
2.43717 28.0811 12.6127
4.06195 28.0811 12.6127
5.68673 28.0811 12.4828
-5.68674 29.7263 12.6261
5.68673 29.7263 12.6214
-5.68674 31.3716 12.5259
-4.06195 31.3716 12.7235
-2.43717 31.3716 12.7235
-0.812391 31.3716 12.7235
0.812389 31.3716 12.7235
2.43717 31.3716 12.7235
4.06195 31.3716 12.7235
5.68673 31.3716 12.5372
-4.06195 33.0169 12.4209
-2.43717 33.0169 12.4209
-0.812391 33.0169 12.4209
0.812389 33.0169 12.4209
2.43717 33.0169 12.4209
4.06195 33.0169 12.4209
-8.9363 1.7568 12.8859
8.9363 1.7568 12.8828
-5.68674 3.40206 13.0932
5.68673 3.40206 13.0912
-4.06195 29.7263 12.9363
-2.43717 29.7263 12.9363
-0.812391 29.7263 12.9363
0.812389 29.7263 12.9363
2.43717 29.7263 12.9363
4.06195 29.7263 12.9363
-4.06195 3.40206 13.5094
4.06195 3.40206 13.5085
-7.31152 -0.0512995 13.8106
-5.68674 -0.0512995 13.8106
-4.06195 -0.0512995 13.8106
-2.43717 -0.0512995 13.8106
