ply
format ascii 1.0
comment VCGLIB generated
element vertex 1584
property float x
property float y
property float z
end_header
-0.0672308 0.378374 -0.162184 
-0.0262763 0.42506 -0.136043 
-0.0240532 0.41354 -0.181874 
-0.0379735 0.407151 -0.177273 
0.0226359 0.00300039 0.0378147 
0.0161019 0.00275667 0.0492851 
0.0163315 0.00846584 0.0948141 
-0.00109746 0.0118434 0.12382 
0.0414209 0.0194883 0.111832 
0.0390069 0.040845 0.141343 
0.0244216 0.0376844 0.150967 
0.0256578 0.0651144 0.172402 
0.0331744 0.0663985 0.166943 
0.000175396 0.0723768 0.187257 
0.0246364 0.0517449 0.161906 
0.0107449 0.0136023 0.124735 
-0.0123862 0.0214768 0.13774 
-0.024287 0.0483208 0.159189 
-0.0127884 0.0464598 0.161343 
0.0327215 0.0378978 0.144812 
0.040372 0.0290174 0.127529 
0.0498138 0.0292132 0.121576 
0.0474731 0.0530565 0.146207 
0.0505351 0.084148 0.164465 
0.0589837 0.117296 0.18095 
0.0685128 0.150512 0.186619 
0.0695863 0.181195 0.18708 
0.0827375 0.0617847 0.136881 
0.0798346 0.0380471 0.118419 
0.0782871 0.0259603 0.106546 
0.12467 0.180073 -0.216573 
0.117224 0.146106 -0.225268 
0.123817 0.154118 -0.229757 
0.12903 0.186254 -0.247864 
0.12187 0.19852 -0.202756 
0.140252 0.217826 -0.135892 
0.117536 0.261257 -0.102632 
0.0508493 0.405815 -0.129351 
0.0280309 0.403047 -0.0804999 
0.0259403 0.418666 -0.108092 
0.0275491 0.423517 -0.15946 
0.113061 0.251609 -0.178072 
0.118296 0.259187 -0.149459 
0.107022 0.281345 -0.136962 
0.0897096 0.323877 -0.144326 
0.0863532 0.315329 -0.179291 
0.0707852 0.372353 -0.160952 
0.0591077 0.349577 -0.200385 
0.0348143 0.320069 -0.237411 
0.0593753 0.305396 -0.222615 
0.0800438 0.28913 -0.208543 
0.0946742 0.287983 -0.182251 
0.0383053 0.407151 -0.177275 
0.0136654 0.417027 -0.18439 
-0.000371923 0.392855 -0.207047 
0.000164125 0.350728 -0.234528 
0.00455043 0.203736 -0.424226 
0.01659 0.216718 -0.404859 
0.0153693 0.226822 -0.397096 
0.00660798 0.230885 -0.397859 
0.000159899 0.208888 -0.420137 
0.105636 0.124872 -0.23252 
0.12026 0.134642 -0.23836 
0.00918116 0.00892299 0.110575 
0.01145 0.00407038 0.0786065 
0.0485973 -0.00520517 0.0213733 
0.102174 0.0250566 0.0652659 
0.0993282 0.0295197 0.0468627 
0.103925 0.0338672 0.0687167 
0.115131 0.0491661 0.0669233 
0.116057 0.0869565 0.0154155 
0.109128 0.0668888 0.00927308 
0.102192 0.0531699 0.0164453 
0.0254387 0.257099 0.165784 
0.0397916 0.231329 0.18277 
0.0560548 0.237323 0.167407 
0.0656938 0.215289 0.177785 
0.0954202 0.233606 0.119251 
0.116668 0.200407 0.0940857 
0.114813 0.195783 0.107405 
0.064485 0.259501 0.134039 
0.0865138 0.264765 -0.00217061 
0.0918609 0.251287 0.0220636 
0.109105 0.243415 -0.02751 
0.114676 0.220731 -0.00777482 
0.135881 0.186339 -0.0231568 
0.133126 0.0920937 -0.152462 
0.105162 0.07266 -0.197016 
0.112794 0.0531882 -0.140348 
0.126887 0.0645918 -0.104201 
0.137087 0.0821792 -0.0999386 
0.14098 0.0986932 -0.0550746 
0.144738 0.117623 -0.0517519 
0.133599 0.117604 -0.0124795 
0.122774 0.118766 0.00793683 
0.116842 0.154675 0.0189445 
0.107053 0.197487 0.0453137 
0.122138 0.169726 0.00782201 
0.127967 0.206564 -0.02059 
0.0760245 0.282297 0.0369278 
0.0952843 0.235242 0.0404308 
0.100719 0.217244 0.0418044 
0.101121 0.236456 0.00630755 
0.0838878 0.26641 0.0367236 
0.0901168 0.251014 0.0396764 
0.076562 0.273706 0.0652229 
0.0893123 0.247989 0.0617136 
0.100988 0.218226 0.0540166 
0.11242 0.175631 0.033601 
0.118908 0.116936 0.0214951 
0.117772 0.0865655 0.0187106 
0.0977032 0.0230807 0.0450418 
0.109643 0.0407901 0.0576872 
0.122731 0.060216 0.0580359 
0.116001 0.0613684 0.0796885 
0.100336 0.0675185 0.104202 
0.0972016 0.0827195 0.120358 
0.0952004 0.105287 0.147912 
0.0866976 0.137153 0.172898 
0.0883755 0.154794 0.174466 
0.0919989 0.120504 0.16155 
0.0968551 0.092865 0.133034 
0.0972636 0.0742343 0.112604 
0.0967043 0.0527832 0.0989905 
0.10862 0.063152 0.0910814 
0.116641 0.0555487 0.0733284 
0.108056 0.0395398 0.067098 
0.0983118 0.0376083 0.0854631 
0.102414 0.0303544 0.0671389 
0.102577 0.0129472 0.0663457 
0.0856297 0.0286659 0.102163 
0.0914108 0.0332424 0.0964919 
0.0940417 0.0697445 0.123764 
0.0949405 0.041255 0.0947021 
0.0968903 0.0324155 0.0864049 
0.100368 0.0439606 0.0870741 
0.0945594 0.0614198 0.110397 
0.0945644 0.0479905 0.099916 
0.125013 0.0756642 0.075231 
0.111092 0.0806584 0.10031 
0.100515 0.0961954 0.119265 
0.101914 0.125479 0.139543 
0.0958914 0.157068 0.165867 
0.0771016 0.186507 0.18073 
0.0591175 0.202074 0.192112 
0.0366232 0.221751 0.20164 
0.0132878 0.237635 0.192635 
0.0831404 0.214541 0.16023 
0.100722 0.206514 0.137166 
0.106019 0.185134 0.139466 
0.121339 0.158079 0.098155 
0.125348 0.155001 0.0766271 
0.122958 0.154551 0.0481025 
0.126138 0.137234 0.0423595 
0.128298 0.10995 0.0384754 
0.125908 0.0773027 0.0396919 
0.121134 0.0585607 0.0479961 
0.12528 0.154789 0.0634802 
0.124073 0.155282 0.0872277 
0.111229 0.189428 0.122566 
0.117307 0.173837 0.108756 
0.132126 0.105458 0.0679405 
0.127697 0.0925177 0.0815108 
0.123931 0.102358 0.092474 
0.110262 0.14917 0.125101 
0.117724 0.132762 0.109151 
0.115941 0.114797 0.107536 
0.11248 0.0706947 0.01952 
0.0916883 0.0370131 0.0247509 
0.0945186 0.0351746 0.033434 
0.0721623 0.0169024 0.0174955 
0.0729857 0.0150076 0.0215599 
0.0968459 0.0323436 0.0389924 
0.082617 0.0276882 0.0216952 
0.105911 0.0554705 0.0222446 
0.0988598 0.0449735 0.0241204 
0.117363 0.199004 0.0860098 
0.098976 0.239262 0.0872446 
0.108371 0.217433 0.106005 
0.0784427 0.244709 0.134651 
0.0689129 0.272234 0.100253 
0.0866286 0.256018 0.081634 
0.0438172 0.245508 0.167365 
0.00128764 0.285898 0.150249 
-0.000228226 0.300986 0.137007 
0.000173283 0.326121 0.110737 
0.024068 0.291054 0.13996 
0.0472322 0.290994 0.115071 
0.0127356 0.273146 0.158149 
0.00148347 0.24759 0.1824 
0.0126017 0.253256 0.17433 
0.0233924 0.349437 -0.0238922 
0.000168352 0.414297 -0.0792771 
0.0129969 0.424788 -0.108433 
0.0648725 0.0137369 0.000973834 
0.0844097 0.0336143 0.0055144 
0.101255 0.0472431 -0.00596381 
0.109844 0.0441825 -0.0336453 
0.0999108 0.0281813 -0.0708961 
0.0664919 0.00886101 -0.0970703 
0.0596479 0.00751137 -0.0541406 
0.0275519 0.00154299 -0.0548133 
0.020765 0.011337 -0.0218938 
0.00128412 0.0141673 0.0019924 
0.0583067 0.00935338 -0.022332 
0.0776327 0.0182577 -0.03423 
0.0368331 0.00948651 -0.0117131 
0.0150544 0.0142011 0.000975242 
0.00825698 0.00806222 0.0345984 
-0.0184574 0.00597649 0.0347252 
-0.00103617 0.00496638 0.0490935 
-0.0119065 0.00315254 0.0524704 
-0.00522947 0.00250027 0.0803429 
0.00557463 0.00250027 0.0803422 
0.00092206 0.00792838 0.0370673 
0.0122502 0.00409433 0.0490992 
-0.0100405 0.0114807 0.0173568 
0.0119255 0.0141757 -0.0108615 
0.0255394 0.0061385 -0.0366426 
0.0298328 -0.00116966 -0.0765835 
0.0187673 -0.00205438 -0.121612 
-0.0184328 -0.00205438 -0.121611 
-0.0153447 -0.00136478 -0.0756537 
-0.0428022 0.000997079 -0.0766497 
-0.045486 0.00557709 -0.0378443 
-0.0123904 0.0134875 -0.0105403 
0.000169761 0.00756914 -0.0315504 
-0.0119882 0.00666539 -0.0357353 
0.000169056 -0.000990035 -0.0692331 
0.0268179 0.329692 0.0877496 
0.0462312 0.308324 0.0878285 
0.0495186 0.315887 0.0637296 
0.0508535 0.318338 0.035643 
0.0513297 0.317493 0.0493168 
0.0372381 0.325197 0.0764046 
0.0158399 0.335212 0.0904792 
0.011779 0.204221 -0.418816 
0.00794212 0.184395 -0.436803 
0.0215413 0.198752 -0.409153 
0.0466778 0.097931 -0.272259 
0.0496912 0.0981656 -0.273919 
0.00708556 0.115786 -0.318515 
0.0180425 0.19167 -0.409453 
0.0283458 0.0128937 0.103494 
0.118849 0.103737 0.0189804 
0.116159 0.153087 0.0256243 
0.11793 0.132245 0.0227412 
0.116293 0.136234 0.0201039 
0.109629 0.137911 -0.224171 
0.0910149 0.101821 -0.245702 
0.0996769 0.112997 -0.238884 
0.0967015 0.112613 -0.235721 
0.116127 0.167778 -0.205356 
-0.0459445 0.0984037 -0.273418 
-0.0795853 0.0892162 -0.243938 
-0.110404 0.247277 -0.192364 
-0.103469 0.270267 -0.181841 
-0.0964888 0.301649 -0.155844 
-0.117562 0.227238 -0.19037 
-0.121539 0.19852 -0.202749 
-0.12293 0.199521 -0.210746 
-0.127762 0.159574 -0.24029 
-0.090912 0.061553 -0.203896 
-0.114108 0.0871875 -0.191571 
-0.129048 0.119166 -0.178798 
-0.137521 0.15415 -0.170062 
-0.137424 0.192907 -0.164734 
-0.125881 0.236306 -0.161928 
-0.127491 0.244112 -0.133946 
-0.105883 0.280503 -0.151118 
-0.106688 0.28339 -0.120215 
-0.0870935 0.333182 -0.13222 
-0.0842738 0.326056 -0.0938223 
-0.061995 0.376674 -0.104956 
-0.0578334 0.349317 -0.0596419 
-0.0807835 0.305271 -0.0543991 
-0.105614 0.277686 -0.0841551 
-0.1162 0.264869 -0.132275 
-0.131249 0.237764 -0.117689 
-0.00794141 0.339234 -0.00332512 
-0.0114514 0.370278 -0.0360128 
-0.0347481 0.32669 -0.00417886 
-0.0503167 0.329281 -0.0258032 
-0.0362259 0.376194 -0.0581395 
-0.0256043 0.418666 -0.108091 
0.000169056 0.38871 -0.0501544 
-0.102054 0.0304495 0.0669022 
-0.102013 0.0338975 0.0478334 
-0.106492 0.0449038 0.0412353 
-0.110849 0.0418417 0.0590918 
-0.117414 0.051349 0.061553 
-0.0991676 0.0300923 0.0467993 
-0.0941755 0.0351746 0.0334389 
-0.0478549 -0.00493961 0.0206344 
-0.0601149 0.00476421 0.0157007 
-0.060651 0.0133727 -0.00943791 
-0.0477802 -0.00238404 0.0171433 
-0.0814414 0.0309693 0.00425352 
-0.104858 0.0548619 0.0211472 
-0.0957576 0.0464295 0.00659565 
-0.101849 0.0531699 0.0164509 
-0.0852275 0.0305657 0.022034 
-0.100713 0.0459294 0.0278559 
-0.122728 0.0643818 0.0447171 
-0.129767 0.0930594 0.051006 
-0.124936 0.0763996 0.07322 
-0.117011 0.0544061 0.0708081 
-0.0488403 0.00715777 -0.00884551 
-0.035082 0.00377242 0.0149956 
0.0415322 0.324977 0.0319034 
0.0383102 0.324237 -0.00450288 
0.000171169 0.337141 0.024193 
0.000171169 0.335858 0.0083003 
0.0138055 0.336135 0.0291118 
0.0283599 0.334579 0.0471128 
0.013807 0.340585 0.0757241 
-0.0282021 0.335125 0.063588 
-0.0134618 0.340585 0.0757255 
-0.0205234 0.205368 -0.408624 
-0.0114599 0.204221 -0.418816 
-0.0142599 0.193606 -0.421304 
-0.0165957 0.190766 -0.41026 
-0.0430924 0.0166305 0.106797 
-0.0279992 0.0128937 0.103495 
-0.118403 0.0614262 0.0380274 
-0.117674 0.0878785 0.0192375 
-0.112409 0.0702904 0.0200582 
-0.118085 0.106412 0.0129106 
-0.11628 0.15147 0.0196637 
-0.117429 0.136137 0.0174772 
-0.115977 0.136203 0.0203237 
-0.0976257 0.109625 -0.240954 
-0.104473 0.118704 -0.219986 
-0.110551 0.141355 -0.22207 
-0.116617 0.168337 -0.208638 
-0.115624 0.167412 -0.20552 
-0.119795 0.194013 -0.199451 
-0.130581 0.16277 -0.256124 
-0.127361 0.116729 -0.275604 
-0.130985 0.119156 -0.291289 
-0.13246 0.165966 -0.273528 
-0.117921 0.193925 -0.329382 
-0.127027 0.102105 -0.315852 
-0.133143 0.147174 -0.298777 
-0.130583 0.123556 -0.309255 
0.0489854 0.34335 -0.0389312 
0.0220421 0.334154 -0.00551792 
0.0521341 0.312923 8.98111e-05 
0.0501202 0.32242 -0.0171631 
0.0721961 0.340921 -0.0785572 
0.0935352 0.311511 -0.107622 
0.103802 0.286741 -0.103145 
0.0846105 0.326056 -0.0938265 
0.062331 0.376674 -0.10496 
0.0600508 0.345739 -0.0592341 
0.036564 0.376194 -0.0581416 
0.0384412 0.410089 -0.108073 
0.0628677 0.389046 -0.130306 
0.10595 0.277686 -0.0841607 
0.132255 0.234731 -0.0815213 
0.131583 0.237764 -0.117697 
0.149567 0.189572 -0.120678 
0.137783 0.175154 -0.168994 
0.145004 0.151497 -0.156539 
0.11688 0.153094 -0.202884 
0.112084 0.140652 -0.210866 
0.127219 0.160995 -0.187055 
0.121154 0.209168 -0.19203 
0.131636 0.218653 -0.164691 
0.137086 0.215948 -0.151923 
0.119825 0.129794 -0.198078 
0.0987731 0.108659 -0.229175 
0.0982174 0.0875496 -0.220026 
0.120846 0.0807345 -0.174024 
0.1293 0.0966131 -0.169384 
0.143528 0.106893 -0.132504 
0.148762 0.126213 -0.129468 
0.136146 0.114281 -0.16495 
0.152856 0.163209 -0.105354 
0.142274 0.206926 -0.0601871 
0.126217 0.228293 -0.0434443 
0.0954836 0.255718 -0.0140306 
0.0787076 0.276867 -0.000329307 
0.0690439 0.304146 -0.0242465 
0.0811223 0.305271 -0.0544033 
0.0914565 0.285869 -0.0513279 
0.102596 0.268003 -0.0485504 
0.149837 0.185874 -0.0834598 
0.150306 0.123412 -0.111776 
0.145742 0.129408 -0.146087 
0.151581 0.145108 -0.126443 
-0.0315346 0.290849 -0.303469 
-0.0102504 0.303906 -0.296572 
0.000163421 0.317078 -0.267637 
-0.0120135 0.328294 -0.246269 
-0.0429424 0.287028 -0.298075 
-0.0344853 0.320069 -0.237409 
-0.0556906 0.308608 -0.225156 
-0.0825325 0.284141 -0.206213 
-0.0993092 0.260228 -0.218206 
-0.0560942 0.292777 -0.257774 
-0.0817295 0.268735 -0.288239 
-0.08052 0.276272 -0.247358 
-0.0995797 0.253711 -0.282283 
-0.0995783 0.257475 -0.240062 
-0.112865 0.231858 -0.239535 
-0.118234 0.219277 -0.259113 
-0.115417 0.221978 -0.297124 
-0.100386 0.235419 -0.325795 
-0.0913192 0.262032 -0.281663 
-0.0814618 0.262759 -0.308698 
-0.121849 0.176817 0.0853638 
-0.114466 0.195783 0.107412 
-0.113018 0.16587 0.12035 
-0.117377 0.132762 0.109157 
-0.128694 0.119038 0.0851765 
-0.128157 0.140842 0.0719774 
0.0493059 0.255612 -0.35144 
0.0346762 0.237507 -0.3786 
0.0367204 0.22465 -0.389168 
0.0742692 0.222285 -0.365433 
0.0482233 0.211666 -0.391054 
0.0738662 0.202489 -0.378928 
0.0985618 0.212967 -0.34926 
0.102051 0.232438 -0.325458 
0.0760147 0.25606 -0.329139 
0.0101814 0.234969 0.203091 
-0.118358 0.179873 -0.203571 
-0.120823 0.209168 -0.192023 
-0.0699103 0.0925487 -0.257678 
-0.0595881 0.0942724 -0.264824 
-0.0720989 0.0887154 -0.260021 
-0.0676682 0.088652 -0.253537 
0.083806 0.0921049 -0.242462 
0.0798846 0.0948986 -0.25104 
0.000404326 0.240972 0.192805 
-0.0399853 0.416717 -0.13451 
-0.038106 0.410089 -0.108072 
-0.0276942 0.403047 -0.0804985 
-0.00378052 0.183743 -0.439281 
-0.00423133 0.203736 -0.424226 
-0.00506675 0.219694 -0.408607 
-0.00954251 0.218099 -0.408111 
-0.00628748 0.230886 -0.397859 
-0.00730041 0.239191 -0.390332 
-0.0143684 0.236973 -0.388941 
-0.00810554 0.246064 -0.384054 
-0.00634031 0.254282 -0.377204 
-0.0076202 0.182452 -0.437885 
-0.0129927 0.216058 -0.407874 
-0.0169873 0.226233 -0.397153 
-0.0211292 0.234181 -0.38833 
-0.0248259 0.241785 -0.379755 
-0.0269736 0.250059 -0.370314 
-0.0373072 0.247186 -0.367718 
-0.0279126 0.261278 -0.356802 
-0.0269722 0.274045 -0.340869 
-0.0359646 0.271526 -0.338072 
-0.0207784 0.286307 -0.326691 
-0.0106534 0.297436 -0.314497 
-0.0209792 0.294486 -0.309143 
0.000162012 0.296809 -0.321796 
-0.0101173 0.278061 -0.347976 
0.124466 0.091192 -0.284911 
0.130237 0.118376 -0.290723 
0.130909 0.16277 -0.256131 
0.132787 0.141076 -0.282456 
0.132787 0.165966 -0.273535 
0.129567 0.188298 -0.265831 
0.124332 0.205151 -0.261122 
0.118561 0.219658 -0.263695 
0.111985 0.233368 -0.278984 
0.1042 0.244556 -0.296764 
0.0946714 0.255302 -0.299991 
0.0820556 0.268735 -0.288243 
0.0687692 0.281661 -0.271966 
0.0680972 0.27729 -0.292126 
0.0564218 0.292777 -0.257777 
0.043806 0.304708 -0.247004 
0.0440743 0.298094 -0.262768 
0.0472293 0.313604 -0.230838 
0.0679648 0.290208 -0.233859 
0.0808483 0.276272 -0.247362 
0.0923906 0.263848 -0.258743 
0.0915854 0.266773 -0.237752 
0.10098 0.25424 -0.261384 
0.107422 0.244641 -0.259738 
0.107489 0.245228 -0.239385 
0.0699611 0.295129 -0.217862 
0.090781 0.270868 -0.216051 
0.100712 0.257935 -0.21819 
0.108094 0.2457 -0.217932 
0.113731 0.231356 -0.219727 
0.118965 0.216636 -0.226373 
0.095783 0.245973 -0.319466 
0.0652782 0.271727 -0.312149 
0.0549446 0.283185 -0.294978 
0.0440736 0.292535 -0.279861 
0.0314585 0.302402 -0.268126 
0.0123418 0.328294 -0.246269 
0.0194943 0.313703 -0.257583 
0.00936923 0.317374 -0.261387 
0.00977144 0.309906 -0.278533 
0.019695 0.306245 -0.273582 
0.0105759 0.303906 -0.296573 
0.0109781 0.297436 -0.314498 
0.019781 0.296079 -0.306686 
0.0109774 0.288775 -0.331506 
0.0104406 0.278061 -0.347977 
0.00936641 0.265467 -0.36399 
0.00666222 0.254282 -0.377205 
0.0170007 0.253097 -0.372682 
0.0318607 0.296539 -0.284973 
0.0298469 0.291457 -0.303963 
0.108897 0.234032 -0.301596 
0.113192 0.222901 -0.309077 
0.116816 0.221611 -0.284551 
0.111581 0.212441 -0.328598 
0.102454 0.202155 -0.351341 
0.0893011 0.193679 -0.370424 
0.0737317 0.191174 -0.384333 
0.0563887 0.191628 -0.394265 
0.0386652 0.185974 -0.403951 
0.0210672 0.196199 -0.409513 
0.0311049 0.202089 -0.402154 
0.0345022 0.207003 -0.399722 
0.0315952 0.21286 -0.399161 
0.0273793 0.218363 -0.398413 
0.0228247 0.224934 -0.395406 
0.0220914 0.233627 -0.388326 
0.0251471 0.241785 -0.379756 
0.0272948 0.250059 -0.370316 
0.0282352 0.261278 -0.356803 
0.0301145 0.273023 -0.339242 
0.0517227 0.277106 -0.31476 
0.0463538 0.269169 -0.334933 
0.0586343 0.264873 -0.332356 
0.0166725 0.24409 -0.381773 
0.00762091 0.239191 -0.390332 
0.0146121 0.236091 -0.38969 
0.115675 0.198912 -0.331454 
0.110238 0.167542 -0.360232 
0.0974439 0.152037 -0.380018 
0.0828734 0.134314 -0.396505 
0.0994177 0.127855 -0.383971 
0.0660411 0.120989 -0.409425 
0.0473047 0.117895 -0.417598 
0.068136 0.0891091 -0.411653 
0.0428149 0.166995 -0.409378 
0.0565486 0.179215 -0.398852 
0.0623796 0.162734 -0.401547 
0.122654 0.160315 -0.342153 
0.112117 0.12105 -0.368135 
0.120572 0.113818 -0.350502 
0.10005 0.1042 -0.385958 
0.08795 0.0827449 -0.399161 
0.101394 0.0833337 -0.385409 
0.122856 0.207615 -0.281221 
0.123795 0.195071 -0.308357 
0.128157 0.191088 -0.285454 
0.132116 0.169884 -0.292534 
0.129968 0.152583 -0.321116 
0.133391 0.145694 -0.300629 
0.130908 0.122673 -0.308012 
0.125538 0.106998 -0.332432 
0.127351 0.101503 -0.314793 
0.118827 0.0921366 -0.35424 
0.109386 0.0745921 -0.373889 
0.000166239 0.428338 -0.169559 
0.0139344 0.428529 -0.162633 
0.116625 0.118359 -0.249099 
0.121649 0.115554 -0.262184 
0.118561 0.0959841 -0.270025 
0.124734 0.0787199 -0.304593 
0.124331 0.0819151 -0.320426 
0.121197 0.0646249 -0.338327 
0.122518 0.0646876 -0.322514 
-0.0429304 0.267864 0.150299 
-0.034074 0.30238 0.120232 
-0.0346107 0.313109 0.103714 
-0.035282 0.320788 0.0885132 
-0.0366246 0.325059 0.0752141 
-0.0413222 0.324596 0.0627617 
-0.0509859 0.317493 0.0493197 
-0.0613209 0.306057 0.0344427 
-0.0691052 0.292809 0.0174779 
-0.0743403 0.284745 -0.00116966 
-0.0670878 0.294859 0.00138098 
-0.0770248 0.288182 -0.0196292 
-0.0811857 0.291871 -0.0364256 
-0.0694771 0.31327 -0.0389114 
-0.102257 0.268003 -0.0485455 
-0.0911177 0.285869 -0.051323 
-0.104673 0.273492 -0.0659717 
-0.0927956 0.29329 -0.0687604 
-0.131919 0.234731 -0.081515 
-0.118363 0.256747 -0.0823532 
-0.131785 0.236219 -0.100113 
-0.118431 0.258952 -0.100761 
-0.14279 0.213419 -0.113986 
-0.149233 0.188884 -0.120349 
-0.152186 0.165448 -0.123456 
-0.152052 0.1452 -0.126687 
-0.148697 0.125972 -0.129976 
-0.142926 0.10632 -0.133276 
-0.134873 0.0875165 -0.136553 
-0.12427 0.0701699 -0.140299 
-0.111923 0.0541871 -0.144263 
-0.0980997 0.0399476 -0.148306 
-0.0813237 0.0288068 -0.156934 
-0.0657551 0.025363 -0.173758 
-0.0585082 0.0315645 -0.193925 
-0.0508584 0.043614 -0.215247 
-0.0337943 0.0550662 -0.233358 
-0.0152143 0.0597011 -0.239813 
-0.0295644 0.0799794 -0.260102 
0.000969255 0.0587614 -0.239584 
0.0171536 0.0576605 -0.239699 
0.00360583 0.0775936 -0.261293 
0.0341233 0.0596779 -0.238965 
0.0530801 0.0645347 -0.236287 
0.0338605 0.0796145 -0.25868 
0.071896 0.0713124 -0.232281 
0.0871202 0.0792207 -0.226727 
-0.0610525 0.304013 0.0161297 
-0.0218104 0.0403815 -0.218138 
-0.014791 0.0147139 -0.180209 
-0.01924 0.026166 -0.19832 
-0.00414962 0.0412937 -0.218093 
0.0135111 0.0400033 -0.218277 
0.0184969 0.0252489 -0.198941 
0.0315642 0.0396306 -0.217842 
0.0195711 0.0141637 -0.180267 
0.019974 0.00617442 -0.161466 
0.0396951 0.0162093 -0.178238 
0.0242891 0.00168105 -0.141677 
0.0390921 0.00259114 -0.125349 
0.0431178 0.00704717 -0.142614 
0.0612575 0.00949074 -0.118409 
0.0827311 0.0197405 -0.115962 
0.0825297 0.0236189 -0.135046 
0.100045 0.0323866 -0.112643 
0.114808 0.0469557 -0.103624 
0.113667 0.0498085 -0.123225 
0.12729 0.0628392 -0.0837 
0.135344 0.0802337 -0.0585114 
0.136618 0.0809543 -0.0793173 
0.137491 0.0941097 -0.0366045 
0.134405 0.0994223 -0.0198151 
0.140001 0.115371 -0.0312194 
0.128843 0.100604 -0.00602791 
0.1229 0.101841 0.00525588 
0.127921 0.11543 -0.00108795 
0.116478 0.0856695 0.0112433 
0.111799 0.0648369 -0.000769558 
0.0973094 0.0478207 0.00596803 
0.116555 0.0636774 -0.0122633 
0.120849 0.0623997 -0.0260125 
0.105549 0.0460562 -0.0183944 
0.121923 0.0565715 -0.0441317 
0.114809 0.0437514 -0.0673685 
0.110878 0.0404928 -0.0510257 
0.0511888 0.043614 -0.21525 
0.0588393 0.0315645 -0.193928 
0.07126 0.0508221 -0.210956 
0.0603164 0.0229554 -0.17421 
0.0609877 0.0172589 -0.155431 
0.0801129 0.0328888 -0.169521 
0.0886467 0.0605527 -0.205742 
0.095211 0.0519126 -0.183519 
0.0969558 0.0448636 -0.164947 
0.0984329 0.0399476 -0.148311 
0.111451 0.0575294 -0.156192 
-0.0399663 0.00862503 -0.154859 
-0.0618626 0.0131346 -0.138219 
-0.0830671 0.0198666 -0.115912 
-0.100648 0.0299571 -0.0922402 
-0.114874 0.0438112 -0.0726254 
-0.12655 0.0610747 -0.0627674 
-0.135676 0.0800153 -0.0582979 
-0.141716 0.0988531 -0.0547231 
-0.144937 0.117794 -0.0518245 
-0.146547 0.137412 -0.0488231 
-0.146547 0.158933 -0.045556 
-0.143728 0.183149 -0.0430223 
-0.135272 0.206011 -0.0375541 
-0.120375 0.224351 -0.0251622 
-0.104672 0.239239 -0.0107418 
-0.0928611 0.25227 0.00328708 
-0.08454 0.265827 0.0197933 
-0.0776947 0.279155 0.03693 
-0.0699096 0.290339 0.0517153 
-0.0627959 0.297053 0.0638726 
-0.0595747 0.296773 0.0740547 
-0.0575615 0.293821 0.0856921 
-0.0551454 0.290098 0.10062 
-0.0538028 0.282683 0.117059 
-0.065815 0.270875 0.112616 
-0.052997 0.271931 0.134426 
-0.0523257 0.26025 0.150026 
-0.0846718 0.257573 0.0899185 
-0.0826586 0.256501 0.102668 
-0.0805109 0.252343 0.118009 
-0.0780941 0.244709 0.134655 
-0.0775573 0.232731 0.150289 
-0.082791 0.214541 0.160234 
-0.090307 0.194175 0.164387 
-0.0932598 0.174795 0.168184 
-0.0861996 0.175016 0.175872 
-0.0720538 0.201919 0.179205 
-0.0653437 0.215289 0.177788 
-0.0551433 0.229223 0.174435 
-0.0434671 0.245508 0.167367 
-0.0366225 0.260384 0.159073 
-0.0324623 0.275341 0.149379 
-0.0237193 0.294714 0.13658 
-0.0115818 0.314213 0.122256 
-0.00200613 0.313119 0.125168 
-0.0654775 0.225314 0.16987 
-0.0123862 0.298532 0.136685 
-0.0226556 0.28254 0.146819 
-0.0126546 0.284273 0.148775 
-0.0123855 0.273146 0.15815 
0.000175396 0.258348 0.172899 
-0.00914453 0.264634 0.166619 
-0.0669223 0.19769 0.184897 
-0.0517481 0.214463 0.191865 
-0.0400297 0.219412 0.201789 
-0.0401262 0.223886 0.192343 
-0.0260142 0.232371 0.192576 
-0.0129363 0.233994 0.203023 
-0.0124792 0.239023 0.192667 
-0.0122509 0.253256 0.17433 
-0.0250886 0.257099 0.165785 
-0.0253288 0.245309 0.17615 
-0.0693722 0.282773 0.0720993 
-0.0710296 0.284242 0.0627962 
-0.0762175 0.273706 0.0652271 
-0.0877598 0.251647 0.061479 
-0.0823916 0.264297 0.0553733 
-0.0882966 0.251549 0.049588 
-0.0847549 0.263818 0.0395376 
-0.0982279 0.222984 0.0538976 
-0.0937994 0.235898 0.0474593 
-0.096276 0.232446 0.0378478 
-0.0915185 0.251287 0.0220685 
-0.0974235 0.235255 0.0245156 
-0.100779 0.236456 0.00631319 
-0.102926 0.216575 0.0275678 
-0.107542 0.196646 0.0310074 
-0.115068 0.154778 0.0215811 
-0.112695 0.175275 0.0230836 
-0.115434 0.169643 0.0177055 
-0.112019 0.194343 0.0156451 
-0.119353 0.154485 0.0147477 
-0.122433 0.118766 0.00794317 
-0.121767 0.135917 0.0111503 
-0.125957 0.154957 0.0046339 
-0.114335 0.220731 -0.00776918 
-0.119704 0.199114 -0.00135773 
-0.128428 0.202894 -0.0191917 
-0.13742 0.180973 -0.0241042 
-0.134064 0.156451 -0.0093238 
-0.141514 0.157863 -0.0259491 
-0.142118 0.137002 -0.0292611 
-0.135407 0.118008 -0.0163248 
-0.140843 0.117568 -0.0327677 
-0.128502 0.100604 -0.00602157 
-0.108785 0.0668888 0.00927872 
-0.11966 0.0838381 0.00230304 
-0.125042 0.0822321 -0.00939142 
-0.115959 0.085883 0.01265 
-0.138494 0.0987989 -0.0357466 
-0.129502 0.0810768 -0.022775 
-0.133126 0.0802013 -0.0388051 
-0.116214 0.0636774 -0.0122569 
-0.100914 0.0472431 -0.00595888 
-0.105209 0.0460562 -0.0183887 
-0.0869561 0.0334256 -0.00527702 
-0.0738036 0.0226475 -0.00705985 
-0.0784667 0.0225482 -0.0167623 
-0.124268 0.0611233 -0.0428962 
-0.109505 0.0441825 -0.0336397 
-0.113128 0.0431132 -0.051883 
-0.0936677 0.0298381 -0.0322936 
-0.0782328 0.018829 -0.0303044 
-0.0625303 0.00970417 -0.0366271 
-0.0615914 0.00798121 -0.0542519 
-0.0796423 0.0166869 -0.0473671 
-0.0613237 0.00707394 -0.075293 
-0.0808109 0.0156261 -0.0933933 
-0.0552849 0.00476844 -0.0979867 
-0.0387575 0.00160216 -0.120279 
-0.0430544 0.00567923 -0.13648 
-0.0239553 0.00168105 -0.141676 
-0.0970234 0.0282067 -0.0501706 
-0.0865539 0.273976 -0.021803 
-0.0906493 0.277233 -0.0369567 
-0.0984991 0.261494 -0.0310623 
-0.113665 0.248899 -0.0455039 
-0.117356 0.253924 -0.0638134 
-0.14279 0.210741 -0.0768244 
-0.130307 0.232338 -0.0623898 
-0.100514 0.0329825 -0.112707 
-0.114472 0.0482567 -0.113857 
-0.115344 0.0457011 -0.0935053 
-0.127489 0.062163 -0.0837965 
-0.137556 0.0821792 -0.0999315 
-0.137019 0.0808451 -0.0792067 
-0.143864 0.0998026 -0.075374 
-0.14977 0.120692 -0.0923346 
-0.14789 0.118693 -0.0721373 
-0.149768 0.13827 -0.0692211 
-0.151648 0.161027 -0.0862154 
-0.149634 0.159865 -0.0663556 
-0.147352 0.184603 -0.0634894 
-0.0609194 0.304079 -0.00327159 
-0.0609194 0.312653 -0.021717 
-0.050671 0.315687 -0.00636038 
-0.0568937 0.333358 -0.039744 
-0.0468285 0.365014 -0.0592108 
-0.0467595 0.348917 -0.0422278 
-0.038642 0.393817 -0.0814312 
-0.0403833 0.327411 0.048361 
-0.0280161 0.334579 0.0471142 
-0.0142676 0.339052 0.0450292 
-0.0253309 0.333738 0.0792313 
-0.0261107 0.327685 0.0922085 
-0.015494 0.335212 0.0904799 
-0.0557737 0.0922571 -0.263085 
-0.039402 0.0927164 -0.269195 
-0.0239778 0.0995455 -0.281449 
-0.0122833 0.110617 -0.3004 
-0.0132026 0.0983058 -0.283459 
-0.00104463 0.0973654 -0.28323 
0.0111133 0.0959193 -0.280043 
0.0243039 0.0944633 -0.275731 
0.0397296 0.0927164 -0.269198 
0.0561013 0.0922571 -0.263088 
0.090083 0.0897043 -0.257441 
0.0837701 0.0948267 -0.25351 
-0.123488 0.154118 -0.229751 
-0.12434 0.180073 -0.216566 
-0.116297 0.118359 -0.249093 
-0.124407 0.135052 -0.248649 
-0.128769 0.13734 -0.262385 
-0.118234 0.0959841 -0.270019 
-0.117011 0.0519126 0.0665289 
-0.110237 0.0461759 0.0734299 
-0.109477 0.0522542 0.0810078 
-0.109672 0.061417 0.0886456 
-0.110153 0.0713596 0.0952191 
-0.11078 0.0787368 0.0990792 
-0.123364 0.102341 0.0921197 
-0.111819 0.0873312 0.101603 
-0.113099 0.0997639 0.104469 
-0.112412 0.114086 0.110594 
-0.108835 0.12542 0.119463 
-0.106355 0.129154 0.124448 
-0.105124 0.128147 0.128756 
-0.102368 0.125749 0.138809 
-0.0976165 0.123084 0.151012 
-0.0913805 0.121192 0.161234 
-0.0955414 0.157412 0.165711 
-0.101581 0.161041 0.154178 
-0.0992993 0.178549 0.157482 
-0.106743 0.165939 0.139623 
-0.110033 0.16394 0.128701 
-0.110744 0.187923 0.123782 
-0.0955414 0.199592 0.152648 
-0.0890186 0.217346 0.148901 
-0.100374 0.206514 0.137172 
-0.104803 0.21308 0.120709 
-0.0950722 0.233606 0.119256 
-0.108024 0.217433 0.106011 
-0.1095 0.219743 0.0945682 
-0.0907099 0.104293 0.15508 
-0.0963486 0.108626 0.146254 
-0.0937261 0.0939765 0.144259 
-0.0971065 0.092934 0.132051 
-0.101511 0.11025 0.126343 
-0.0989077 0.0951212 0.123399 
-0.100012 0.0961179 0.119536 
-0.0951645 0.079773 0.127415 
-0.0932218 0.0683828 0.121893 
-0.0968234 0.0822863 0.11966 
-0.0916932 0.0582958 0.115676 
-0.0907218 0.0473748 0.10765 
-0.0942544 0.0624835 0.110293 
-0.0905528 0.0378429 0.10038 
-0.0908022 0.0331811 0.0969702 
-0.0944784 0.0413719 0.0950197 
-0.0981617 0.083681 0.116067 
-0.102083 0.0849236 0.111375 
-0.0968177 0.0738715 0.112395 
-0.0961232 0.0645537 0.107409 
-0.100297 0.0665944 0.103343 
-0.0962514 0.0531058 0.0994307 
-0.0968191 0.0430082 0.0915675 
-0.0977835 0.0370356 0.0855364 
-0.100686 0.0436225 0.085959 
-0.100428 0.0339158 0.0772808 
-0.0157581 0.00275667 0.0492858 
-0.0340986 -0.00200226 0.0274889 
-0.0222929 0.00300039 0.0378154 
-0.0483226 0.00119361 0.010429 
-0.0470335 0.00412743 0.00177685 
-0.0128391 0.00210581 0.0625145 
-0.0147128 0.00403657 0.0774351 
-0.120658 0.182982 -0.206582 
-0.119587 0.165914 -0.215179 
-0.116895 0.146106 -0.225261 
-0.119931 0.134642 -0.238354 
-0.112579 0.128351 -0.235083 
-0.106577 0.112938 -0.244004 
-0.0971171 0.101094 -0.250409 
-0.0897554 0.0897043 -0.257436 
-0.0834426 0.0948267 -0.253506 
-0.0613167 0.18829 0.193095 
-0.0625247 0.171766 0.194933 
-0.0594373 0.138791 0.191352 
-0.0454796 0.102629 0.183183 
-0.0842674 0.124502 0.17058 
-0.0721884 0.120784 0.176082 
-0.081478 0.104867 0.164827 
-0.115986 0.0869734 0.0163291 
-0.118502 0.0997061 0.0186177 
-0.122807 0.105053 0.0266316 
-0.127686 0.106568 0.0379647 
-0.130707 0.106899 0.0526177 
-0.131512 0.105802 0.0677869 
-0.129365 0.10418 0.0804795 
-0.128291 0.0928516 0.0786396 
-0.125741 0.0834598 0.0789334 
-0.130049 0.0917387 0.0667515 
-0.122501 0.120976 0.0285567 
-0.121537 0.137478 0.0310327 
-0.127411 0.121993 0.0399131 
-0.118787 0.154979 0.0357987 
-0.114924 0.175828 0.0469937 
-0.122614 0.154551 0.0481088 
-0.111515 0.198453 0.0643896 
-0.107086 0.219647 0.0795349 
-0.0984956 0.239423 0.0860231 
-0.0779616 0.268015 0.0745809 
-0.081776 0.263045 0.0663436 
-0.0876253 0.253017 0.0734045 
-0.0948722 0.236658 0.0661619 
-0.130573 0.121277 0.0547111 
-0.128426 0.136458 0.0569539 
-0.131459 0.121649 0.0713709 
-0.124936 0.154789 0.0634873 
-0.121715 0.17681 0.0763623 
-0.124704 0.158574 0.0757157 
-0.0507344 0.0190952 0.109003 
-0.0594697 0.0211232 0.109354 
-0.0693574 0.0238725 0.109077 
-0.0697455 0.0272275 0.112383 
-0.0763077 0.0291956 0.110958 
-0.0794874 0.0380471 0.118423 
-0.0809258 0.049419 0.128172 
-0.0823888 0.0617847 0.136885 
-0.0845365 0.074726 0.144884 
-0.076886 0.0876426 0.158443 
-0.0631882 0.0880258 0.16348 
-0.050185 0.084148 0.164468 
-0.0434207 0.071597 0.15885 
-0.0481789 0.0717837 0.157485 
-0.0419999 0.0560734 0.15004 
-0.0420485 0.0420333 0.139536 
-0.0469434 0.0440634 0.139389 
-0.0404262 0.0314807 0.130571 
-0.0342268 0.0258983 0.13049 
-0.0236791 0.0206787 0.132302 
-0.035151 0.0385874 0.142908 
-0.0328293 0.0515075 0.155104 
-0.0253662 0.0335263 0.146356 
-0.0343008 0.0670875 0.165053 
-0.0566134 0.0718555 0.155416 
-0.0727244 0.0709433 0.149835 
-0.0593493 0.0568039 0.145484 
-0.0595141 0.0439056 0.135114 
-0.0714833 0.042966 0.129388 
-0.0602072 0.0330621 0.122653 
-0.0498561 0.0316153 0.124356 
-0.0527948 0.0238668 0.11337 
-0.0468257 0.0222587 0.113531 
-0.0332667 0.0846383 0.182772 
-0.0254845 0.0645615 0.171312 
-0.0214363 0.0742836 0.182651 
-0.0681613 0.150512 0.186622 
-0.0780934 0.153805 0.181109 
-0.0787639 0.170225 0.181517 
-0.0686452 0.168673 0.187939 
-0.0681613 0.185828 0.186914 
-0.00913044 0.00244251 0.065704 
-0.00711163 0.00540803 0.0962616 
-0.00883389 0.00892299 0.110576 
-0.0304886 0.0170391 0.118403 
-0.0409855 0.0198778 0.113032 
0.000170465 0.340068 -0.00311521 
-0.0115846 0.334342 0.0124619 
-0.0200226 0.334533 -0.00375128 
-0.040384 0.321786 0.013603 
0.0133984 0.430696 -0.137991 
-0.0126609 0.424788 -0.108432 
0.000167647 0.429482 -0.117008 
-0.0272166 0.423517 -0.159458 
-0.0130645 0.430696 -0.13799 
0.000166943 0.433016 -0.14593 
-0.013602 0.428529 -0.162632 
-0.0340366 0.185601 -0.405828 
-0.0546044 0.181415 -0.399019 
0.00216533 0.41445 -0.189595 
-0.013335 0.391708 -0.205465 
-0.0264122 0.390158 -0.201601 
-0.039719 0.38526 -0.196386 
-0.0517974 0.372932 -0.194305 
-0.0617294 0.347478 -0.198146 
-0.0713924 0.318044 -0.199295 
-0.0822634 0.297493 -0.193066 
-0.0689826 0.298377 -0.214097 
-0.0924631 0.281725 -0.189381 
-0.100517 0.264048 -0.198104 
-0.0920785 0.273295 -0.203736 
-0.107496 0.246947 -0.21233 
-0.113401 0.231356 -0.21972 
-0.106893 0.246183 -0.233961 
-0.118636 0.216636 -0.226366 
-0.122663 0.207172 -0.241953 
-0.117377 0.220222 -0.243245 
-0.124005 0.205496 -0.261275 
-0.123067 0.20703 -0.281571 
-0.118552 0.218577 -0.275968 
-0.123872 0.193146 -0.309337 
-0.119711 0.20883 -0.30534 
-0.112734 0.208726 -0.329373 
-0.119175 0.179147 -0.337574 
-0.106023 0.200261 -0.347311 
-0.105889 0.184544 -0.356319 
-0.0110542 0.346509 -0.235493 
-0.0122615 0.366719 -0.223135 
-0.00219632 0.369772 -0.222225 
-0.0726962 0.178128 -0.39008 
-0.0896955 0.174149 -0.378959 
-0.056352 0.192421 -0.394189 
-0.0216173 0.201275 -0.408779 
-0.0363175 0.200721 -0.400694 
-0.0899181 0.188794 -0.371912 
-0.073545 0.202489 -0.378923 
-0.0899181 0.20227 -0.36479 
-0.065224 0.210345 -0.380491 
-0.0605263 0.217247 -0.379834 
-0.0756674 0.215843 -0.368784 
-0.0546213 0.224184 -0.37888 
-0.0454944 0.23096 -0.378269 
-0.0666391 0.23168 -0.363395 
-0.0218942 0.222843 -0.397545 
-0.0170042 0.215002 -0.406037 
-0.0270595 0.218363 -0.398412 
-0.0312747 0.21286 -0.399159 
-0.0982392 0.212967 -0.349254 
-0.090052 0.219103 -0.353162 
-0.107359 0.222452 -0.327344 
-0.0834757 0.2396 -0.341984 
-0.064149 0.248032 -0.349055 
-0.0489833 0.255612 -0.351437 
-0.0583103 0.264874 -0.332353 
-0.0933394 0.247577 -0.320939 
-0.0649535 0.271727 -0.312146 
-0.051398 0.277106 -0.314757 
-0.040527 0.280214 -0.318196 
-0.0772967 0.347293 -0.17136 
-0.0782356 0.35667 -0.154162 
-0.0578376 0.326673 -0.212007 
-0.0448196 0.329315 -0.223186 
-0.0479063 0.352077 -0.21097 
-0.036364 0.362988 -0.214066 
-0.0241983 0.366402 -0.219322 
-0.021716 0.344547 -0.232066 
-0.095118 0.295244 -0.173777 
-0.0873619 0.331 -0.147013 
-0.0956829 0.304985 -0.140489 
-0.0781011 0.36043 -0.139581 
-0.0653515 0.383977 -0.128149 
-0.0770945 0.359035 -0.122806 
-0.0669624 0.384593 -0.145922 
-0.0529371 0.403982 -0.132291 
-0.054615 0.403137 -0.151739 
-0.041194 0.415351 -0.155861 
0.0354236 0.00377242 0.0149935 
0.0486529 0.000311697 0.0121041 
0.0342022 0.000225056 0.0243015 
0.00881909 0.00270666 0.0630836 
0.034441 -0.00200226 0.0274868 
0.0509648 0.209533 0.201127 
0.0325849 0.0180246 0.117483 
0.0204741 0.0118392 0.111525 
0.0694504 0.023223 0.108713 
0.0593014 0.0208443 0.109211 
0.0510782 0.0196052 0.109291 
0.047173 0.0222587 0.113528 
0.0508795 0.0233956 0.113642 
0.0448492 0.0304037 0.125298 
0.0428945 0.0421489 0.139298 
0.0479929 0.0400138 0.13542 
0.0422436 0.0559784 0.149978 
0.0432206 0.0714336 0.159054 
0.048031 0.0679391 0.155148 
0.0451112 0.0875947 0.170133 
0.0476069 0.103634 0.181722 
0.0540958 0.100886 0.174011 
0.053078 0.120778 0.188647 
0.0597888 0.138791 0.191349 
0.0648217 0.134305 0.184645 
0.0635468 0.155267 0.192779 
0.0644865 0.170494 0.193324 
0.0699885 0.165968 0.187319 
0.06301 0.186341 0.192953 
0.0666335 0.196297 0.186009 
0.0389498 0.0545977 0.151573 
0.0331787 0.0515075 0.155102 
0.039476 0.0698043 0.161776 
0.0398853 0.0850962 0.17561 
0.0321728 0.0801851 0.18061 
0.0302089 0.0930707 0.198839 
0.0409989 0.101979 0.192307 
0.0217871 0.0742836 0.18265 
0.0103202 0.0706933 0.183645 
0.00922624 0.0832112 0.201678 
0.0193351 0.0863634 0.20004 
0.0154398 0.0597596 0.172092 
0.0131378 0.045904 0.161227 
0.00144613 0.0597011 0.173881 
0.0127349 0.0328888 0.149973 
0.0119297 0.0218741 0.138003 
-0.000228226 0.0210908 0.138242 
-0.0127884 0.0329684 0.149899 
-2.67672e-05 0.0325429 0.150438 
0.000174691 0.045518 0.16173 
0.0234009 0.0261005 0.139502 
0.0223168 0.0169891 0.126359 
0.0325151 0.0264893 0.132467 
0.0565908 0.0247466 0.113916 
0.0584237 0.0333643 0.124564 
0.0585026 0.0443952 0.13606 
0.0591098 0.0574815 0.145465 
0.0605693 0.0721641 0.154497 
0.0635383 0.0880258 0.163475 
0.067707 0.10424 0.17091 
0.0725385 0.120784 0.176079 
0.0762964 0.13742 0.179423 
0.0784441 0.153805 0.181105 
0.0791147 0.170225 0.181514 
0.088241 0.17243 0.174675 
0.0873013 0.0887118 0.151972 
0.0772354 0.0876426 0.158438 
0.0848852 0.074726 0.144879 
0.0743459 0.0727382 0.150246 
0.07253 0.0588657 0.141573 
0.086935 0.0452243 0.116068 
0.0812737 0.049419 0.128168 
0.0714811 0.0460801 0.132355 
0.0701893 0.0351619 0.122012 
0.0671498 0.0267105 0.113235 
0.0766543 0.0291956 0.110954 
0.015058 0.00403657 0.0774344 
0.0131843 0.00210581 0.0625138 
0.120126 0.194013 -0.199457 
0.120989 0.182982 -0.206588 
0.119917 0.165914 -0.215186 
0.124735 0.135052 -0.248656 
0.129416 0.135263 -0.265526 
0.128091 0.159574 -0.240297 
0.12742 0.183385 -0.23077 
0.12326 0.199521 -0.210753 
0.119167 0.215321 -0.209427 
0.1191 0.214697 -0.199085 
0.127019 0.213896 -0.177666 
0.117892 0.227237 -0.190376 
0.121516 0.233332 -0.177301 
0.110471 0.245858 -0.195856 
0.126214 0.236306 -0.161935 
0.129436 0.237962 -0.148048 
0.116216 0.256395 -0.162974 
0.127825 0.244112 -0.133953 
0.118699 0.260573 -0.122673 
0.116715 0.263908 -0.13782 
0.106755 0.282197 -0.120083 
0.0962859 0.306026 -0.123546 
0.0978793 0.300547 -0.136791 
0.0876964 0.333044 -0.130276 
0.0789724 0.359409 -0.139528 
0.0811871 0.350099 -0.152203 
0.0681014 0.382691 -0.147761 
0.0549482 0.403514 -0.148462 
0.0403199 0.416717 -0.134512 
0.0415272 0.415351 -0.155863 
0.0555518 0.39415 -0.170299 
0.10125 0.261904 -0.197319 
0.103532 0.268271 -0.180288 
0.0915192 0.278301 -0.196846 
0.106485 0.274766 -0.166354 
0.107559 0.279013 -0.152523 
0.097091 0.302026 -0.152569 
0.0972249 0.296255 -0.168098 
0.0879641 0.325193 -0.162844 
0.0776299 0.347293 -0.171364 
0.0658185 0.365632 -0.18054 
0.0521285 0.372932 -0.194308 
0.0366936 0.362988 -0.214068 
0.0113831 0.346509 -0.235493 
0.0220449 0.344547 -0.232066 
0.0336069 0.340715 -0.227036 
0.0465623 0.354728 -0.210875 
0.0462228 0.334199 -0.220125 
0.0589731 0.324448 -0.211392 
0.0701125 0.309677 -0.205345 
0.0733232 0.332367 -0.190879 
0.0828629 0.302516 -0.193527 
0.0400494 0.38526 -0.196388 
0.0267433 0.397999 -0.196462 
0.0125912 0.394253 -0.205395 
0.0232361 0.369323 -0.218341 
0.00908184 0.367292 -0.223926 
0.000159195 0.189515 -0.436786 
0.00409891 0.183743 -0.439281 
0.00820274 0.202585 -0.423413 
0.0117022 0.216907 -0.40785 
0.0107111 0.227017 -0.399357 
0.00853029 0.216272 -0.410385 
0.00538655 0.219694 -0.408607 
0.0974461 0.101094 -0.250414 
0.108152 0.0975478 -0.258379 
0.106906 0.112938 -0.244009 
0.112908 0.128351 -0.235088 
0.000173283 0.00651887 0.108267 
0.00745749 0.00540803 0.0962616 
0.000173283 0.00296165 0.0938751 
0.061647 0.00308774 0.0195996 
0.0483169 -0.00295743 0.01835 
0.0610765 0.00527279 0.0153422 
0.0612251 0.00858559 0.00853769 
0.101217 0.0221728 0.0561918 
0.101594 0.0289019 0.0567011 
0.104341 0.0330107 0.0593538 
0.102621 0.0333037 0.0497789 
0.110555 0.0693345 0.016322 
0.0159371 0.243408 0.182978 
0.0256789 0.245309 0.176149 
0.0404622 0.23898 0.174701 
0.0554934 0.229223 0.174432 
0.0658276 0.225314 0.169867 
0.0705246 0.229618 0.161578 
0.0772903 0.209326 0.170679 
0.077906 0.232731 0.150285 
0.0915953 0.226638 0.135639 
0.089368 0.217346 0.148897 
0.10515 0.21308 0.120703 
0.0600565 0.241865 0.160896 
0.064821 0.247563 0.149759 
0.0549559 0.257625 0.149781 
0.04489 0.282848 0.131115 
0.0541508 0.269982 0.134284 
0.055492 0.279805 0.116722 
0.0661622 0.268 0.116779 
0.0458283 0.300463 0.101963 
0.0573706 0.286291 0.100087 
0.0583096 0.292364 0.0861584 
0.0477069 0.313066 0.0759861 
0.0588463 0.297667 0.0755198 
0.0599198 0.301582 0.0643762 
0.0609933 0.305063 0.0505038 
0.0599191 0.308407 0.0338672 
0.0622 0.303004 0.0157592 
0.0695821 0.291743 0.0176569 
0.0683747 0.296201 0.0354204 
0.076829 0.278842 0.0189579 
0.0844787 0.265279 0.0150189 
0.093202 0.25227 0.00328215 
0.105013 0.239239 -0.0107474 
0.120715 0.224351 -0.0251686 
0.135612 0.206011 -0.0375611 
0.144067 0.183149 -0.0430301 
0.147825 0.159073 -0.0506552 
0.152253 0.140481 -0.0894198 
0.150106 0.138522 -0.0691373 
0.149703 0.120657 -0.0926396 
0.144871 0.103491 -0.115317 
0.13561 0.0877574 -0.136044 
0.123396 0.0749014 -0.156437 
0.125141 0.0700776 -0.140053 
0.126215 0.0668592 -0.123372 
0.136885 0.0842805 -0.119241 
0.144603 0.100799 -0.0961581 
0.143261 0.0993448 -0.075691 
0.147757 0.118589 -0.0722535 
0.146885 0.137228 -0.0483257 
0.14192 0.136314 -0.0289477 
0.135076 0.135561 -0.0123675 
0.128445 0.131222 0.000167295 
0.122109 0.135917 0.011144 
0.119694 0.154485 0.0147413 
0.126902 0.149454 0.00405206 
0.115424 0.154798 0.0212345 
0.115775 0.169643 0.0176998 
0.113037 0.175275 0.0230779 
0.133465 0.155154 -0.00851726 
0.14178 0.159461 -0.0271177 
0.1285 0.176894 -0.00545664 
0.107966 0.217569 0.00992747 
0.122192 0.199517 -0.00521644 
0.0702541 0.290339 0.0517118 
0.0776355 0.276384 0.0527719 
0.0697173 0.286028 0.0649249 
0.0830037 0.264091 0.0535799 
0.0881043 0.250951 0.0527938 
0.0826684 0.261741 0.0649362 
0.0936064 0.235805 0.0508489 
0.095647 0.233718 0.059513 
0.107885 0.196646 0.0310017 
0.113583 0.193063 0.0138932 
0.103269 0.216575 0.0275628 
0.0977666 0.235255 0.02451 
0.0691806 0.282061 0.0748359 
0.0783068 0.268015 0.0745766 
0.071615 0.274344 0.0847383 
0.0879705 0.253017 0.0734003 
0.0968283 0.236954 0.0708356 
0.104746 0.219102 0.0684758 
0.111054 0.198374 0.0610705 
0.115267 0.175828 0.0469874 
0.11913 0.154979 0.0357923 
0.12188 0.137478 0.0310271 
0.122845 0.120976 0.0285504 
0.126994 0.124385 0.0381338 
0.123151 0.105053 0.0266246 
0.122933 0.0899255 0.0266154 
0.128128 0.0931207 0.0384613 
0.120869 0.0744062 0.0302015 
0.117361 0.0610071 0.0355846 
0.123052 0.0657991 0.0421749 
0.104958 0.0479876 0.0321083 
0.113212 0.0526219 0.0398053 
0.106836 0.0449038 0.0412296 
0.100729 0.0358473 0.0418396 
0.109081 0.0424257 0.0496775 
0.116828 0.0522014 0.0506538 
0.117252 0.0512138 0.0589904 
0.121389 0.0593637 0.0658667 
0.12206 0.0655871 0.0727036 
0.118492 0.0701833 0.083419 
0.109784 0.0731876 0.0970526 
0.120429 0.0790552 0.0873559 
0.101303 0.0764736 0.108741 
0.0986358 0.0839008 0.116036 
0.102597 0.0854596 0.111824 
0.0990331 0.0951254 0.123755 
0.0989309 0.107838 0.136616 
0.101571 0.110181 0.126724 
0.0976989 0.122605 0.151537 
0.094415 0.138722 0.164471 
0.100181 0.141321 0.154072 
0.0839462 0.119813 0.169725 
0.0805912 0.103234 0.165045 
0.089449 0.103719 0.157437 
0.0935063 0.0905376 0.143509 
0.0954484 0.0804196 0.128842 
0.0920137 0.0775626 0.137986 
0.0959055 0.072798 0.116518 
0.0965719 0.0645734 0.107293 
0.100197 0.0560904 0.0963454 
0.108273 0.0528543 0.0835218 
0.108883 0.0456406 0.0760221 
0.102939 0.0379055 0.0771569 
0.100653 0.033758 0.0773287 
0.101143 0.0258533 0.0747232 
0.0995304 0.0151295 0.0785896 
0.0926505 0.0255645 0.0925459 
0.0899843 0.0656427 0.131134 
0.0874696 0.0551197 0.125317 
0.0916066 0.0576083 0.118264 
0.0910684 0.0473748 0.107645 
0.0857755 0.033434 0.10592 
0.0921997 0.0389685 0.0985622 
0.0952941 0.0372096 0.0914322 
0.096841 0.0426983 0.0919669 
0.128771 0.082492 0.0647193 
0.12716 0.0846073 0.0773449 
0.130582 0.0931651 0.0695345 
0.12183 0.085268 0.089181 
0.112371 0.0881835 0.102531 
0.121558 0.0919746 0.0926938 
0.104366 0.0972161 0.114943 
0.103136 0.11126 0.122248 
0.105118 0.128005 0.129162 
0.104999 0.144484 0.141483 
0.101858 0.159992 0.155163 
0.0952201 0.175369 0.165818 
0.0846175 0.190019 0.173439 
0.0724039 0.201919 0.179201 
0.061802 0.209702 0.184892 
0.0535478 0.222586 0.181871 
0.0518706 0.216201 0.189402 
0.0394831 0.22429 0.191156 
0.0279675 0.236799 0.184184 
0.0260973 0.231878 0.191966 
0.0906563 0.194174 0.164382 
0.0958907 0.199592 0.152643 
0.101022 0.179264 0.154568 
0.106948 0.164186 0.141438 
0.11065 0.168606 0.128824 
0.108616 0.147586 0.130255 
0.113366 0.16587 0.120344 
0.117866 0.152624 0.109578 
0.113127 0.147022 0.119381 
0.123346 0.139753 0.0960587 
0.127026 0.135711 0.0841001 
0.129039 0.136049 0.0717964 
0.12877 0.136458 0.0569476 
0.130515 0.121176 0.0506679 
0.131589 0.105958 0.0528395 
0.132059 0.120211 0.066457 
0.130783 0.0926903 0.05515 
0.128233 0.0799759 0.0512335 
0.125814 0.0702284 0.0636732 
0.125549 0.0676031 0.0518703 
0.119778 0.176381 0.0626307 
0.12206 0.17681 0.0763567 
0.115685 0.199146 0.076992 
0.122194 0.176817 0.0853575 
0.120718 0.176158 0.0954015 
0.130381 0.119316 0.0797004 
0.125368 0.119251 0.0934271 
0.12971 0.104432 0.0805655 
0.106798 0.129139 0.124525 
0.110256 0.130244 0.119937 
0.106776 0.112299 0.11788 
0.113888 0.0995483 0.105092 
0.11405 0.0676961 0.0246037 
0.110591 0.0560396 0.0302487 
0.107523 0.0561446 0.025115 
0.101096 0.0460252 0.0278735 
0.0980842 0.0394961 0.0338813 
0.0957055 0.0396003 0.0295887 
0.0906415 0.033825 0.0288434 
0.0828565 0.0255412 0.0252115 
0.084297 0.0235485 0.0288653 
0.0902112 0.0309031 0.0310736 
0.0929604 0.0291724 0.0360945 
0.0721623 0.0200307 0.0115617 
0.0830523 0.0310651 0.0151837 
0.0746488 0.0240021 0.00530097 
0.0932605 0.041429 0.0165383 
0.108102 0.219394 0.0810092 
0.0984393 0.237878 0.0812417 
0.109445 0.219459 0.0878884 
0.107431 0.224501 0.0944386 
0.0976341 0.237889 0.104742 
0.0808581 0.252343 0.118004 
0.0830051 0.256501 0.102664 
0.0966529 0.24249 0.0943928 
0.0850176 0.257573 0.0899135 
0.0495884 0.251348 0.160351 
0.0369719 0.260384 0.159071 
0.0248731 0.270235 0.155945 
0.0158413 0.283769 0.148591 
0.0247815 0.279687 0.14872 
0.0119297 0.299976 0.136639 
0.00868808 0.31544 0.122416 
0.0328117 0.275341 0.149378 
0.0446379 0.267711 0.149035 
0.0345558 0.288556 0.136622 
0.0344205 0.312673 0.104125 
0.0369712 0.299675 0.119817 
0.000174691 0.273454 0.160833 
0.000174691 0.266167 0.16703 
0.00949461 0.264634 0.166619 
0.00828234 0.339234 -0.00332512 
0.0112542 0.351636 -0.0189487 
0.011791 0.370278 -0.0360135 
0.0121925 0.391546 -0.0559784 
0.0157011 0.410076 -0.0797969 
0.0631389 0.0111714 -0.00967177 
0.0745467 0.022108 -0.00440426 
0.0872971 0.0334256 -0.00528195 
0.0907859 0.0318491 -0.0174258 
0.0751595 0.01937 -0.0182197 
0.0940065 0.0298381 -0.0322992 
0.0973615 0.0282067 -0.0501762 
0.0812554 0.015512 -0.0733665 
0.0793099 0.0161621 -0.0522049 
0.0597818 0.00597296 -0.0754114 
0.0426028 0.000925934 -0.0709645 
0.036564 0.000930161 -0.0556797 
0.0366986 0.00413237 -0.037802 
0.0333435 0.00898709 -0.0228934 
0.0451542 0.0063956 -0.0236224 
0.0243321 0.0133734 -0.0110115 
0.0269109 0.0124527 -0.00140845 
0.0462277 0.00472829 -0.0378703 
0.046103 0.00341881 -0.0520957 
0.0601854 0.00986478 -0.0362861 
0.0498518 0.00659706 -0.011623 
0.0511641 0.0044423 0.000482162 
0.0371247 0.00758534 0.000708275 
0.0231917 0.0103705 0.0129529 
0.0195527 0.00605608 0.0333157 
0.0103822 0.0114807 0.0173568 
0.000171169 0.0109658 0.021767 
-0.00679887 0.00803263 0.0346695 
-0.00791394 0.00438595 0.0494 
-0.00549714 0.00219808 0.0637761 
0.000172578 0.0015127 0.0764898 
-0.00139119 0.00257001 0.0611367 
0.00351778 0.00248829 0.0636225 
0.00584089 0.00502555 0.0489513 
-0.0228493 0.0103705 0.0129536 
-0.0118755 0.0139031 0.00101046 
-0.000232452 0.0135798 -0.0107932 
0.00868455 0.0110735 -0.0215613 
-0.00201036 0.0111862 -0.0193749 
0.0123277 0.00666539 -0.035736 
0.0139373 0.00181207 -0.0537863 
0.000169056 0.00255451 -0.0483736 
0.0156814 -0.00136478 -0.0756544 
0.01756 -0.00279894 -0.0991729 
0.000167647 -0.00305463 -0.116119 
0.000168352 -0.00282429 -0.0928255 
-0.017224 -0.00279894 -0.0991715 
-0.0294961 -0.00116966 -0.0765821 
-0.0331385 0.00193886 -0.0553099 
-0.0328701 0.00598916 -0.0374089 
-0.0343459 0.00890679 -0.0230631 
-0.0239912 0.0127549 -0.0132353 
-0.0115853 0.011027 -0.0214346 
-0.0229184 0.0103867 -0.0251672 
-0.024261 0.00556652 -0.0405633 
-0.0250689 0.00131829 -0.0579626 
-0.0135992 0.00181207 -0.0537856 
0.0117945 0.327602 0.106277 
0.0230748 0.31029 0.121621 
0.0236636 0.324336 0.101516 
0.035494 0.320639 0.0893141 
0.0282253 0.331564 0.0308749 
0.040727 0.327411 0.0483589 
0.0391168 0.327301 0.0631731 
0.0262136 0.33445 0.0764898 
0.0275554 0.335901 0.062306 
0.018742 0.209783 -0.408581 
0.013061 0.196927 -0.422609 
0.0208432 0.205368 -0.408625 
0.014579 0.193606 -0.421304 
0.0156412 0.192992 -0.41764 
0.0388266 0.103965 -0.284269 
0.0271884 0.109436 -0.297543 
0.0199155 0.107446 -0.292632 
0.0160631 0.113 -0.311097 
0.0319861 0.0128359 0.100893 
0.0206657 0.00828903 0.0911484 
0.043439 0.0166305 0.106795 
0.117342 0.103119 0.0155613 
0.116866 0.119123 0.0178006 
0.117953 0.12063 0.0152196 
0.117624 0.140581 0.0181802 
0.103009 0.126515 -0.227971 
0.10526 0.124792 -0.221394 
0.108016 0.140078 -0.219249 
0.112417 0.153655 -0.211044 
0.113892 0.154959 -0.214399 
0.117771 0.17185 -0.207227 
0.119287 0.182544 -0.203282 
0.122028 0.192215 -0.192407 
0.118462 0.182148 -0.200675 
-0.0690756 0.074559 -0.237848 
-0.0841984 0.0754438 -0.226001 
-0.0728519 0.0528388 -0.212195 
-0.0980603 0.108601 -0.228632 
-0.0963007 0.0855928 -0.219123 
-0.10565 0.0986629 -0.211954 
-0.104389 0.0738201 -0.197791 
-0.108993 0.132485 -0.214584 
-0.112649 0.112356 -0.204708 
-0.118774 0.127349 -0.197281 
